ply
format ascii 1.0
comment created by MATLAB plywrite
element vertex 801
property float x
property float y
property float z
property float nx
property float ny
property float nz
end_header
0.320683 -0.392046 10.078122 0.512881 -0.793793 -0.326874 
-0.175006 -0.576845 10.329085 0.095408 -0.995227 0.020506 
-0.184879 -0.571363 10.356369 -0.206274 -0.935962 0.285352 
0.044995 -0.501288 9.974772 0.029376 -0.738464 -0.673652 
-0.548201 -0.365342 10.783239 0.669351 -0.693467 0.266594 
-0.086803 0.204856 10.618431 -0.223481 0.765991 0.602756 
0.189962 -0.281044 10.739529 0.259047 -0.447291 0.856052 
-0.104567 -0.420638 10.613968 -0.173133 -0.894383 0.412436 
0.319954 -0.354999 10.020212 0.708188 -0.556633 -0.434314 
-0.746874 0.279933 11.194031 -0.432709 -0.354944 0.828721 
0.460228 -0.061860 10.334207 0.985630 0.140614 0.093605 
-0.464641 -0.270511 10.720809 0.670160 -0.664385 0.330874 
0.097912 0.035395 10.776220 0.253995 0.451290 0.855467 
-0.159859 -0.464359 10.484771 -0.298023 -0.377070 0.876927 
-0.233157 -0.475589 10.195065 -0.845036 -0.449832 -0.289078 
-0.106285 0.286753 11.245181 -0.163885 0.899886 -0.404162 
-0.142233 0.261212 11.241991 -0.544625 0.748683 -0.377964 
-0.152050 0.260887 11.256851 -0.592853 0.750996 -0.290741 
-0.084795 -0.437630 10.572648 -0.225864 -0.966800 0.119515 
0.000635 0.011971 10.793140 -0.049920 0.429583 0.901647 
-0.286056 0.255224 9.975857 -0.160852 0.635351 0.755285 
-0.657850 0.198950 10.957331 0.462106 0.256513 -0.848917 
-0.805557 0.075859 10.477534 -0.693764 0.687840 0.213466 
-0.796990 0.075758 10.517980 -0.713948 0.669649 0.204569 
-0.721201 -0.210949 10.155087 -0.655350 -0.393965 -0.644444 
0.376746 -0.282623 10.546619 0.756958 -0.543176 0.363283 
0.356609 -0.306362 10.547009 0.718120 -0.585720 0.375813 
0.088251 0.056172 9.847544 -0.397959 0.292346 -0.869576 
-0.383911 -0.028054 10.779830 0.228216 0.090752 0.969372 
0.204790 -0.508037 10.322080 0.367671 -0.916546 0.157358 
0.223647 -0.499945 10.295486 0.479161 -0.877171 -0.031237 
-0.818428 0.045786 10.532740 -0.728687 0.617533 0.296087 
-0.635350 -0.400496 10.241855 -0.350185 -0.771327 -0.531438 
-0.364897 -0.414614 10.148517 0.258461 -0.962065 -0.087340 
-0.344836 -0.395531 10.104650 0.491565 -0.838261 -0.235969 
0.231366 0.066430 9.904268 0.629751 0.513138 -0.583184 
0.224551 0.021999 9.868363 0.221296 0.681529 -0.697529 
0.214264 0.013315 9.848625 0.232262 0.540087 -0.808926 
-0.584961 -0.414522 10.543028 -0.087669 -0.880518 0.465836 
-0.563129 -0.020710 11.098370 -0.737286 0.278148 0.615665 
-0.465781 0.096673 10.004461 -0.424629 0.905367 -0.001327 
-0.276025 0.335951 10.388517 -0.659378 0.567836 0.492729 
-0.258738 -0.147446 10.758239 -0.195525 -0.153567 0.968601 
-0.225076 -0.188796 10.758669 -0.355947 -0.269178 0.894899 
-0.263041 0.208489 10.584501 -0.195996 0.777044 0.598154 
-0.155858 0.209188 11.331111 0.778402 -0.624819 0.060750 
-0.139638 0.220772 11.301331 0.709621 -0.670016 0.217983 
-0.004862 -0.565151 10.189331 0.155174 -0.983008 -0.098059 
-0.557862 0.214112 10.354764 -0.064093 0.997937 -0.003751 
-0.558134 0.218607 10.383827 -0.203532 0.962304 -0.180403 
-0.296632 0.086719 11.301740 -0.529183 -0.123262 0.839507 
-0.464922 -0.431425 10.473528 0.305011 -0.920389 0.244649 
-0.882602 -0.373839 10.619339 -0.500352 -0.000443 -0.865822 
-0.615036 -0.430160 10.304116 0.002273 -0.937278 -0.348574 
-0.584823 -0.436890 10.304918 -0.349992 -0.933106 -0.082577 
0.081261 0.199061 10.587261 0.199822 0.971429 0.128054 
-0.825250 0.066051 10.396742 -0.660527 0.720136 -0.212386 
-0.635975 0.094805 11.041100 0.859987 -0.304027 0.409866 
-0.645332 -0.489182 10.700078 0.862738 -0.493103 -0.111949 
-0.801928 -0.408489 10.598848 -0.240787 -0.192039 -0.951390 
-0.267774 -0.247426 10.722039 -0.345170 -0.380869 0.857786 
-0.078226 -0.513152 10.485176 -0.048117 -0.577110 0.815248 
-0.664983 -0.407050 10.528489 -0.333649 -0.858673 0.389049 
-0.756644 0.094725 10.274182 -0.640997 0.707472 -0.297667 
-0.729608 0.074445 10.854930 -0.267234 0.945254 0.187297 
0.005028 -0.569752 10.370296 -0.001517 -0.955137 0.296160 
-0.353184 0.078257 11.036640 0.154148 0.591946 -0.791100 
-0.429251 -0.069942 10.790710 0.303456 0.119057 0.945378 
-0.439068 -0.110693 10.799210 0.628360 -0.022193 0.777606 
-0.231678 0.003337 10.749940 -0.149217 0.249433 0.956827 
-0.060916 0.126175 9.891352 0.018683 -0.072493 -0.997194 
0.059295 0.240621 10.482848 0.153393 0.484993 0.860960 
-0.407181 -0.020884 9.836157 0.034417 0.051678 -0.998071 
-0.556472 -0.349278 10.157357 -0.193291 -0.603544 -0.773546 
-0.601798 -0.135151 11.058610 0.096420 -0.004673 0.995330 
0.110737 0.068065 10.750930 0.276402 0.582103 0.764694 
0.267966 -0.403155 10.034917 0.459137 -0.731751 -0.503720 
0.243441 -0.420575 10.035280 0.634584 -0.614161 -0.469158 
-0.394659 -0.377075 10.584219 0.259362 -0.888789 0.377870 
-0.064984 -0.573244 10.314991 0.198264 -0.961919 0.188158 
-0.586992 0.030724 10.926760 0.351503 0.769464 0.533265 
-0.867595 -0.143556 10.577069 -0.977948 -0.059820 0.200099 
-0.445330 -0.064486 11.107850 0.444825 -0.872505 0.202152 
-0.810176 -0.372870 10.596459 -0.340801 -0.074809 -0.937154 
-0.314842 0.153847 9.886702 0.069231 -0.149216 -0.986378 
0.438908 -0.041760 10.473298 0.932401 0.182474 0.311981 
0.428754 -0.041734 10.500880 0.933882 0.145932 0.326448 
0.122169 -0.027690 10.795510 0.282365 0.229801 0.931376 
0.118641 -0.083400 10.804070 0.262096 0.065333 0.962828 
-0.808410 0.014776 10.260714 -0.836295 0.143019 -0.529298 
-0.838411 -0.295800 10.384242 -0.845019 -0.522897 -0.111899 
-0.860797 -0.261676 10.382888 -0.826665 -0.483403 -0.288006 
-0.877229 -0.234133 10.388583 -0.874037 -0.379388 -0.303519 
-0.137252 0.375066 10.171482 0.294960 0.933987 -0.201659 
-0.644897 0.184974 11.115381 0.761556 -0.339693 0.551943 
-0.940189 -0.173000 10.687699 -0.966627 0.036519 -0.253572 
-0.593549 -0.179552 9.910533 -0.466431 -0.554940 0.688828 
-0.538714 -0.167075 9.949083 -0.455698 -0.486230 0.745600 
-0.817249 -0.279654 11.031919 -0.327744 -0.289049 0.899463 
-0.640343 -0.016956 9.957636 -0.378602 0.311953 0.871405 
-0.620081 -0.036734 9.969936 -0.352154 0.095072 0.931101 
0.126883 0.044837 9.843606 0.008412 0.028047 -0.999571 
0.101351 -0.403761 9.846885 -0.005757 -0.021484 -0.999753 
0.015025 -0.560506 10.105842 -0.034837 -0.886280 -0.461838 
-0.754938 -0.530406 10.774408 0.155629 -0.987443 -0.027145 
-0.227229 0.340193 10.125946 -0.540646 0.786421 -0.298737 
0.295409 -0.428644 10.442527 0.549845 -0.790235 0.270555 
-0.822803 -0.462111 10.893828 -0.523016 -0.654033 0.546530 
-0.197383 0.213320 10.588981 0.045796 0.823335 0.565705 
-0.206175 0.281092 9.864923 0.223051 0.963078 -0.150762 
-0.566910 0.013788 10.006774 -0.910434 0.362652 0.198981 
-0.300912 -0.002162 11.066200 0.431654 -0.716346 -0.548200 
-0.321324 0.005652 11.041420 0.508949 -0.563845 -0.650423 
0.265920 0.217526 10.078127 0.737690 0.566784 -0.366836 
-0.745865 -0.307609 10.220218 -0.617302 -0.463424 -0.635749 
-0.249816 0.126943 11.095600 0.133582 0.664411 -0.735333 
-0.751200 0.309702 11.110061 -0.658196 0.346068 -0.668592 
-0.735970 0.349302 11.110471 -0.876008 0.272181 -0.398155 
-0.797359 -0.105540 10.206327 -0.690579 0.095929 -0.716867 
-0.769640 -0.102517 10.186471 -0.674038 0.100091 -0.731884 
-0.068155 -0.244437 9.885420 0.038293 -0.038411 -0.998528 
0.401246 -0.315826 10.157990 0.947445 -0.311287 -0.073821 
-0.595895 -0.339088 10.159393 -0.222665 -0.598234 -0.769764 
-0.132790 0.239642 10.519661 -0.207419 0.975754 0.069871 
-0.119956 0.377811 10.382298 0.299406 0.862420 0.408151 
-0.408505 0.220948 10.471294 -0.070034 0.953863 0.291958 
-0.623267 0.086779 9.855820 -0.400199 0.894901 0.197467 
0.198737 -0.359281 9.858543 0.535543 -0.145501 -0.831879 
0.230618 -0.372995 9.889705 0.718641 -0.285691 -0.633985 
-0.404873 -0.355990 10.625469 0.060686 -0.836629 0.544397 
-0.541813 -0.142533 11.041949 0.605010 -0.276677 0.746601 
-0.571418 -0.268337 9.841672 -0.049609 -0.056574 -0.997165 
-0.588141 -0.282500 9.841523 -0.002151 -0.023053 -0.999732 
-0.803572 -0.319872 10.303551 -0.689406 -0.574522 -0.441184 
-0.315191 -0.417650 10.331201 -0.312013 -0.936094 -0.162408 
-0.334971 -0.419573 10.331470 0.375641 -0.923903 -0.072782 
-0.406606 -0.060183 11.065540 0.244290 -0.847697 0.470885 
-0.442470 -0.060970 11.079470 0.669219 -0.743057 0.003506 
-0.419021 -0.042412 11.079990 0.351626 -0.759505 0.547277 
-0.748658 0.178651 10.985741 -0.756468 0.184538 -0.627457 
-0.740400 0.208683 10.985431 -0.740260 0.141968 -0.657161 
0.394034 0.097747 10.272645 0.818578 0.570020 -0.070765 
0.377117 0.137508 10.299595 0.734777 0.546518 -0.401772 
-0.225096 -0.401172 10.599199 -0.230378 -0.851528 0.470984 
-0.646486 -0.162705 11.061889 0.054177 0.003033 0.998527 
-0.697859 -0.173504 11.063649 -0.004931 0.022134 0.999743 
-0.314952 -0.441959 10.403682 0.110444 -0.987247 -0.114654 
-0.344963 -0.443803 10.446088 -0.151031 -0.978703 0.139032 
-0.324927 -0.444318 10.432096 0.025661 -0.998309 -0.052157 
-0.304948 -0.448521 10.446458 -0.184927 -0.953822 -0.236697 
-0.142754 -0.265607 9.885007 0.006220 -0.034176 -0.999396 
-0.826468 -0.407675 10.947129 -0.499344 -0.585756 0.638393 
-0.802896 -0.426472 10.947658 -0.458885 -0.613633 0.642557 
-0.726712 -0.195714 10.151052 -0.694610 -0.361136 -0.622172 
-0.265472 0.086298 9.884572 -0.003480 0.034166 -0.999410 
-0.593516 -0.389170 9.971428 -0.375328 -0.266356 0.887797 
0.242993 0.222724 10.428306 0.313009 0.880403 0.356252 
-0.014996 -0.553605 10.438864 0.087400 -0.908845 0.407875 
-0.486888 -0.104012 10.886170 0.968064 0.074271 0.239449 
-0.384924 -0.398313 9.978180 0.079683 -0.964255 0.252712 
-0.389761 -0.084734 10.784860 0.166593 0.010674 0.985968 
-0.930791 -0.372943 10.688389 -0.979598 0.047046 -0.195381 
-0.674898 -0.416953 10.486606 -0.147114 -0.964692 0.218464 
0.051437 -0.457510 9.900741 0.126301 -0.991973 -0.006206 
0.409886 -0.161552 10.542119 0.924164 -0.109147 0.366071 
0.233991 0.239637 10.034152 0.740335 0.574792 -0.348595 
-0.890554 -0.291990 10.865239 -0.983270 0.145966 0.108972 
-0.271171 0.284260 10.090771 -0.820996 0.458578 -0.340104 
-0.415061 -0.410722 10.120055 -0.217979 -0.958134 -0.185648 
0.253900 -0.474040 10.349285 0.485529 -0.874119 0.013328 
-0.482072 0.121741 9.835431 -0.091585 0.086659 -0.992019 
-0.708102 0.166181 10.365051 -0.379667 0.922954 0.063320 
0.589680 -0.081354 10.191324 0.852496 0.305116 0.424446 
-0.134767 -0.508338 10.045377 -0.318417 -0.921276 -0.223295 
-0.144744 -0.514423 10.073901 -0.189826 -0.940192 -0.282853 
-0.064891 -0.583327 10.232623 -0.247495 -0.962499 -0.111095 
-0.064981 -0.571626 10.203885 -0.184203 -0.843303 -0.504886 
-0.340008 0.254968 10.266043 -0.963723 0.230892 -0.133891 
-0.705311 -0.414144 10.472483 -0.322460 -0.897346 0.301312 
-0.055619 0.157694 10.668011 0.011798 0.834813 0.550408 
0.164903 -0.376098 10.639909 0.214924 -0.886566 0.409645 
-0.447519 0.193631 10.282851 -0.073150 0.940195 -0.332690 
-0.144784 -0.535036 10.145277 -0.252357 -0.966835 -0.039322 
-0.114833 -0.549615 10.118752 -0.379168 -0.901762 -0.207503 
-0.307813 -0.233036 10.727379 0.293930 -0.450568 0.842967 
-0.396388 0.111311 10.048721 0.105204 0.990747 -0.085745 
-0.281815 -0.109637 10.757250 -0.047905 0.009213 0.998809 
-0.296600 0.315906 10.375785 -0.861782 0.390398 0.323915 
-0.411413 0.278037 9.864372 -0.471124 0.853827 0.221408 
-0.106209 -0.129714 10.801050 -0.177953 0.016891 0.983894 
-0.146479 0.303376 9.981464 -0.105741 0.863576 -0.493007 
-0.550760 -0.167198 11.042259 0.537359 -0.099137 0.837507 
-0.572890 -0.390510 10.207545 -0.067319 -0.797170 -0.599991 
-0.337588 -0.267135 10.718579 0.313989 -0.549919 0.773951 
-0.449304 -0.396088 10.143376 -0.591545 -0.798993 -0.108094 
-0.024935 -0.491587 9.974077 -0.060331 -0.668698 -0.741082 
-0.111221 0.279122 10.480697 -0.059909 0.361181 0.930569 
0.531328 -0.062018 9.976715 0.656759 0.170750 -0.734515 
-0.389846 0.079748 11.033000 0.005884 0.753913 -0.656948 
0.277412 -0.227692 10.710209 0.578161 -0.180018 0.795816 
-0.383111 0.109198 11.226750 -0.601528 0.663530 0.444850 
-0.629568 0.336027 11.036701 0.885663 0.234659 -0.400669 
-0.623164 0.306059 11.036721 0.940343 0.124626 -0.316581 
-0.459466 0.200077 9.845122 -0.868350 0.210156 -0.449224 
-0.505130 -0.143932 10.931959 0.916784 -0.230806 0.325937 
0.252887 -0.247090 10.722279 0.597516 -0.288653 0.748100 
-0.738976 -0.041003 10.162178 -0.644429 0.187129 -0.741413 
-0.762949 -0.045457 10.189313 -0.811926 0.222237 -0.539803 
-0.515091 -0.400500 10.556309 0.270678 -0.888653 0.370175 
-0.534909 -0.419951 10.515168 0.287808 -0.892075 0.348381 
0.022766 0.339266 10.155176 0.338083 0.930789 0.139035 
-0.228778 0.225136 10.558701 0.067487 0.913733 0.400672 
-0.503006 -0.263296 10.849179 0.754172 -0.340799 0.561321 
-0.455014 -0.320050 10.666209 -0.113192 -0.697715 0.707376 
-0.425028 -0.325095 10.666399 -0.090411 -0.751036 0.654042 
-0.767129 0.163422 11.118051 -0.831988 -0.279840 0.479046 
-0.775215 0.189217 11.111441 -0.950283 -0.176921 0.256244 
-0.679516 0.560292 11.208552 -0.848735 0.494164 -0.188285 
-0.631802 -0.144269 10.090340 -0.301886 -0.080993 -0.949897 
0.113837 0.251572 9.949119 0.084206 0.975460 -0.203440 
-0.847817 -0.313075 10.615909 -0.375691 0.164042 -0.912111 
-0.823617 -0.328227 10.603769 -0.381383 0.080614 -0.920895 
-0.853906 -0.352249 10.609909 -0.321639 0.158056 -0.933577 
-0.885535 -0.331117 10.627459 -0.511175 0.235449 -0.826598 
-0.068004 -0.244886 10.794239 -0.192366 -0.287163 0.938367 
-0.223022 0.096123 11.153770 0.287815 -0.704966 0.648218 
0.096573 -0.223293 9.845666 0.024092 0.036042 -0.999060 
0.285718 0.210621 10.398069 0.597883 0.780671 0.181902 
0.055178 -0.566317 10.328242 0.301832 -0.926553 -0.224493 
-0.893828 -0.204290 10.416067 -0.962818 -0.243380 -0.117248 
-0.894416 -0.194240 10.443031 -0.992231 -0.021439 0.122548 
-0.761145 0.083630 11.076370 -0.834980 -0.316801 0.449940 
-0.759750 0.056392 11.062830 -0.818227 -0.248974 0.518186 
-0.647140 -0.078325 10.100149 -0.320161 0.137828 -0.937283 
-0.288479 0.233922 10.078622 -0.938115 0.311788 -0.150760 
0.411083 0.087619 10.316433 0.896511 0.387853 -0.214100 
-0.004978 -0.509033 9.989049 -0.124393 -0.682444 -0.720276 
0.526679 -0.285725 10.054282 0.567022 -0.767711 -0.298507 
0.495286 -0.304744 10.110840 0.247975 -0.937140 0.245514 
0.520606 -0.294954 10.108741 0.448526 -0.889038 0.091846 
0.236525 -0.169606 10.749009 0.542289 -0.031109 0.839616 
-0.171561 -0.311342 9.887670 -0.005589 -0.059269 -0.998226 
-0.126221 -0.336570 9.889952 -0.003872 -0.084216 -0.996440 
-0.134912 -0.301779 9.886663 0.018791 -0.062867 -0.997845 
-0.884987 -0.183683 10.523539 -0.927214 -0.174851 0.331212 
-0.865558 -0.203643 10.550069 -0.852131 -0.294274 0.432754 
0.410535 0.077752 10.259945 0.800686 0.593882 0.078779 
-0.433732 0.114496 10.724140 0.028060 0.734979 0.677509 
-0.097766 0.036679 9.887467 -0.020912 0.037031 -0.999095 
0.464062 -0.317783 10.025821 0.447013 -0.859161 -0.249042 
-0.080553 0.238920 10.518761 0.194071 0.951485 0.238772 
-0.073219 0.241672 10.502251 0.097385 0.810253 0.577933 
0.247433 -0.130927 10.743130 0.568112 -0.012303 0.822859 
0.247439 -0.390469 9.990966 0.448676 -0.876991 -0.171979 
-0.897135 -0.043113 10.726500 -0.899635 0.432042 0.063222 
-0.628225 0.189487 10.410405 -0.092244 0.995380 0.026636 
0.203853 0.227929 9.990271 0.277893 0.707267 -0.650037 
-0.639063 0.087550 10.709040 -0.001965 0.999079 0.042867 
-0.351305 -0.098776 10.776320 0.274365 -0.013371 0.961533 
-0.328107 -0.122030 10.768430 0.306364 -0.005782 0.951897 
0.243668 -0.476806 10.389211 0.467869 -0.864670 0.182878 
-0.305030 -0.373493 10.088731 0.372048 -0.906022 -0.201751 
-0.232226 0.288096 10.450278 -0.365227 0.313678 0.876479 
-0.400330 0.038867 10.766290 0.166627 0.305683 0.937440 
0.125192 -0.533291 10.333342 0.524377 -0.851337 0.015907 
-0.733262 0.368803 11.012411 -0.976144 0.192646 0.100152 
-0.098788 0.227671 10.559251 0.002420 0.967684 0.252155 
-0.217971 -0.460202 9.848631 -0.010447 -0.000489 -0.999945 
-0.619477 -0.272004 10.129616 -0.234806 -0.367014 -0.900093 
-0.076259 0.286620 9.951744 0.011023 0.685439 -0.728046 
0.418096 -0.320498 9.982672 0.207084 -0.889411 -0.407510 
-0.636975 -0.104272 10.093607 -0.355250 0.169944 -0.919193 
-0.155327 -0.372460 10.668509 -0.359294 -0.796940 0.485586 
-0.893331 -0.123552 10.619390 -0.612816 0.160097 -0.773838 
0.005405 -0.574876 10.231643 0.451740 -0.860975 -0.233781 
0.014955 -0.397720 10.669339 0.117472 -0.859891 0.496778 
0.034879 -0.408955 10.641648 0.118016 -0.918745 0.376802 
-0.236707 0.289139 10.036854 -0.551905 0.765475 -0.330829 
-0.555634 -0.471443 9.886375 -0.062134 -0.998062 -0.003328 
-0.726667 0.132871 10.277379 -0.633017 0.670882 -0.386274 
-0.548973 0.167298 10.626251 -0.175236 0.859518 0.480125 
-0.288706 0.085512 11.212290 0.702985 -0.707053 -0.076738 
-0.449017 0.038636 10.987390 -0.013242 0.745581 -0.666283 
-0.778434 -0.014010 11.033280 -0.554240 0.179366 0.812801 
0.565638 -0.043582 10.195327 0.522993 0.525871 0.670774 
0.398861 -0.330247 10.266415 0.822460 -0.566468 -0.051698 
0.404449 -0.320847 10.239231 0.833732 -0.551574 -0.025638 
0.483298 -0.246417 10.194276 -0.223881 -0.586933 0.778066 
0.373859 -0.365588 10.321279 0.724541 -0.688388 0.034083 
0.402398 0.107640 10.315675 0.872550 0.422162 -0.245837 
-0.702100 0.249225 11.185341 0.268009 -0.354405 0.895862 
-0.852858 0.005152 10.345126 -0.876459 0.280171 -0.391567 
-0.850182 -0.014963 10.331804 -0.796498 0.168385 -0.580721 
-0.208348 0.294007 10.456186 -0.256887 0.326314 0.909686 
-0.603383 -0.076532 11.059980 -0.360023 -0.018538 0.932759 
-0.525421 -0.296546 10.004409 -0.863605 -0.046921 0.501982 
0.461219 -0.161698 10.306352 0.994957 -0.059364 0.080846 
-0.216559 -0.449707 10.472101 -0.161602 -0.869684 0.466407 
0.503129 0.029983 10.016868 0.587234 0.706767 -0.394509 
-0.907216 -0.332306 10.810539 -0.909874 -0.109366 0.400210 
-0.171630 0.040821 10.747530 -0.128591 0.434791 0.891303 
0.169160 -0.489225 10.077099 0.175106 -0.970597 -0.165164 
0.199768 -0.170277 10.769689 0.437757 -0.077126 0.895779 
0.164873 -0.128862 10.787640 0.413559 -0.061700 0.908384 
0.528302 -0.216552 9.980389 0.641780 -0.396623 -0.656360 
-0.002945 0.082854 10.747160 -0.012340 0.647837 0.761679 
0.262381 -0.279161 10.696579 0.569810 -0.480846 0.666411 
0.249311 -0.303037 10.689379 0.609531 -0.559986 0.561148 
0.239184 -0.330031 10.666739 0.528665 -0.677483 0.511400 
-0.512571 -0.206327 9.988672 -0.887496 0.420194 0.189178 
-0.506381 -0.176699 9.973795 -0.889466 -0.025706 0.456278 
-0.698932 0.136754 10.537281 -0.433110 0.830824 0.349497 
-0.381348 0.178772 9.838854 0.172378 -0.150729 -0.973430 
-0.403104 0.180814 9.836345 0.040225 -0.037827 -0.998474 
-0.101249 -0.357767 9.892125 0.040774 -0.073571 -0.996456 
-0.698715 -0.504284 10.642398 0.296680 -0.655898 -0.694102 
-0.631137 0.086301 10.943700 0.930854 0.196845 -0.307836 
-0.623817 0.075743 10.975480 0.999763 0.014269 0.016463 
-0.554898 -0.465154 9.913978 -0.059954 -0.920483 0.386156 
-0.258635 0.235700 10.530161 -0.069412 0.975990 0.206459 
-0.739419 0.082071 10.796460 -0.234540 0.953366 0.189960 
-0.729217 0.086680 10.767420 -0.182693 0.981041 -0.064666 
-0.674167 0.375968 10.998881 0.536736 0.250912 -0.805579 
0.444641 -0.011558 10.186626 0.774302 0.617659 0.137672 
-0.945025 -0.202586 10.755469 -0.989760 0.011029 0.142312 
-0.476133 0.107838 10.062658 -0.245712 0.925583 -0.287962 
0.036483 0.039376 10.780430 -0.074688 0.473107 0.877834 
0.226111 0.178490 9.958718 0.560179 0.529704 -0.636878 
-0.580456 -0.046823 9.994852 -0.882485 -0.093352 0.460984 
-0.814089 0.008090 10.917720 -0.875082 0.449439 0.179545 
-0.300853 0.058960 11.290190 -0.142700 -0.651709 0.744925 
0.300530 0.167759 10.067139 0.761022 0.616944 -0.200564 
0.309191 0.147501 10.039830 0.834106 0.478087 -0.275138 
-0.192007 -0.392298 9.892752 0.088553 0.271867 -0.958252 
-0.877422 -0.042669 10.644220 -0.633349 0.569029 -0.524476 
-0.858246 -0.042919 10.616450 -0.707391 0.440341 -0.552899 
-0.444795 -0.436600 10.374933 0.498144 -0.852091 0.160604 
-0.290915 0.269264 9.834799 -0.049383 -0.045855 -0.997727 
-0.486599 0.131054 10.149886 -0.487670 0.797854 -0.354411 
-0.476898 0.146483 10.179559 -0.412222 0.870695 -0.268259 
0.109305 -0.544089 10.185436 0.341458 -0.927547 -0.151865 
-0.605167 0.086597 9.886224 -0.346916 0.900273 0.262979 
-0.918243 -0.322437 10.783069 -0.965726 -0.095998 0.241161 
0.537506 -0.002474 10.019895 0.722719 0.564894 -0.398211 
0.527925 -0.002579 10.005032 0.651944 0.571519 -0.498332 
-0.935435 -0.233048 10.687639 -0.914537 -0.177007 -0.363717 
0.027980 0.211498 9.839768 0.076762 0.169720 -0.982498 
-0.536146 -0.243966 11.008549 0.955501 -0.215949 0.200955 
-0.555057 -0.239144 11.038859 0.569632 -0.142222 0.809501 
-0.532977 -0.087387 11.085530 -0.159605 -0.711452 0.684370 
-0.514963 -0.095431 11.078540 0.040145 -0.820315 0.570502 
0.331357 0.137102 10.070438 0.684595 0.571802 -0.452076 
-0.365003 -0.430957 10.374558 0.295892 -0.947383 0.122124 
-0.917004 -0.201659 10.933579 -0.984799 -0.170971 0.030647 
-0.911800 -0.221613 10.933729 -0.974411 -0.164728 -0.152934 
-0.045066 -0.572759 10.328851 -0.186636 -0.980879 0.055168 
-0.014972 -0.574493 10.315094 0.065036 -0.995901 0.062854 
-0.698391 0.499787 11.152092 -0.932309 0.343835 -0.112147 
-0.438412 0.223043 10.442346 -0.303403 0.948866 0.087174 
-0.448474 0.215301 10.499399 0.074714 0.996596 0.034851 
-0.478735 0.205649 10.542171 -0.152505 0.894200 0.420889 
-0.485603 -0.008712 10.817560 0.789545 0.456976 0.409624 
-0.654948 -0.403186 10.542379 -0.255939 -0.848454 0.463272 
-0.418006 0.152948 9.962580 -0.631156 0.285795 0.721085 
-0.054847 -0.528973 10.019438 -0.315265 -0.811976 -0.491225 
0.214843 -0.479436 10.420228 0.039427 -0.982103 0.184171 
-0.553906 -0.409140 10.232328 0.046242 -0.830291 -0.555408 
-0.030125 0.120497 9.891855 0.038163 -0.038840 -0.998516 
-0.204952 -0.334769 10.694949 -0.369789 -0.621330 0.690801 
-0.078136 0.372015 10.368631 0.136964 0.927478 0.347888 
-0.647895 0.190208 10.338377 -0.236400 0.970103 -0.054912 
-0.657591 0.178323 10.294868 -0.293528 0.929450 -0.223526 
-0.677812 0.178552 10.323163 -0.342522 0.926425 -0.156257 
-0.669085 0.133165 10.580720 -0.397059 0.841950 0.365327 
-0.219245 0.037686 11.110370 0.430475 -0.677326 0.596591 
-0.243462 0.055176 11.125000 0.196154 -0.542175 0.817049 
-0.262045 0.064698 11.138840 0.249484 -0.651552 0.716407 
-0.355510 0.264751 9.951136 -0.342729 0.604315 0.719263 
-0.834735 -0.085224 10.263240 -0.770318 -0.182043 -0.611123 
-0.501104 -0.193814 10.885659 0.880495 -0.284108 0.379487 
-0.496460 -0.173961 10.885989 0.904055 -0.214943 0.369438 
-0.340151 0.133490 9.998932 -0.396307 0.229141 0.889064 
-0.377619 0.149351 9.980620 -0.294024 0.191615 0.936394 
-0.125561 0.218461 10.574831 -0.247620 0.863862 0.438665 
-0.318897 0.275084 10.221822 -0.893553 0.354150 -0.275935 
-0.509699 0.108110 9.834609 -0.087133 0.088726 -0.992238 
-0.591204 0.014823 9.834451 -0.011013 -0.000573 -0.999939 
-0.632430 0.022258 9.833437 -0.010053 -0.001076 -0.999949 
0.335191 -0.260657 9.898634 0.172024 -0.599896 -0.781366 
-0.045943 0.220659 10.595771 0.195112 0.896626 0.397483 
-0.584052 0.086968 9.835250 -0.056175 0.060469 -0.996588 
-0.674507 0.007202 11.051830 0.573562 -0.142169 0.806731 
-0.004755 -0.583223 10.274168 0.254889 -0.953446 0.161157 
-0.346676 0.171931 9.859025 0.451404 -0.595744 -0.664322 
0.282217 0.207544 10.164464 0.727149 0.649113 -0.223400 
0.287460 0.217827 10.193044 0.712115 0.645483 -0.276121 
-0.578115 -0.271205 10.119892 -0.190818 -0.357182 -0.914336 
-0.246551 0.273858 10.007168 -0.546371 0.803320 -0.236971 
-0.146932 0.346956 10.070316 0.031843 0.891914 -0.451082 
0.344933 -0.394804 10.429191 0.689629 -0.673409 0.266331 
0.198889 -0.480195 10.131745 0.433680 -0.900898 0.017465 
-0.692562 -0.438707 10.939578 0.381803 -0.767516 0.514923 
-0.222065 0.209464 11.299981 -0.666648 0.712941 0.217475 
0.065078 -0.533257 10.075335 0.180847 -0.941608 -0.284022 
0.085015 -0.528172 10.061024 0.042976 -0.989991 -0.134432 
-0.915748 -0.431831 10.742208 -0.860151 -0.448803 0.242315 
-0.290472 -0.431406 10.277735 -0.858091 -0.438008 -0.268010 
-0.138482 0.035140 10.760550 -0.315334 0.432010 0.844945 
-0.435275 -0.071050 11.021410 0.570077 -0.795444 -0.205623 
0.287018 -0.341399 9.947464 0.732372 -0.452376 -0.508908 
-0.822330 -0.320731 10.425904 -0.751922 -0.654327 -0.080432 
-0.386758 0.214583 9.962874 -0.288805 0.307743 0.906579 
-0.518625 -0.226347 10.003319 -0.950732 0.287132 0.116895 
-0.164306 -0.044985 9.884009 0.012860 0.009467 -0.999872 
-0.715046 -0.417303 10.401729 -0.231832 -0.972380 -0.027034 
-0.725865 -0.409578 10.374187 -0.455449 -0.872577 -0.176566 
-0.694924 -0.421958 10.346970 -0.552552 -0.804007 -0.219679 
-0.055035 -0.539335 10.061984 -0.063193 -0.995080 -0.076305 
-0.510737 0.039369 11.016540 -0.315821 0.908136 -0.274856 
-0.662100 0.308686 10.985521 0.496791 0.225517 -0.838058 
-0.217072 0.327502 10.082570 -0.452553 0.797760 -0.398466 
-0.398973 -0.018340 11.108940 0.638617 -0.748045 0.180548 
-0.800885 -0.209532 10.239225 -0.797770 -0.198648 -0.569300 
-0.793623 -0.245991 10.239498 -0.791573 -0.293266 -0.536103 
0.218798 0.036417 9.874214 0.498201 0.329470 -0.802026 
0.204112 0.056843 9.871925 0.771573 0.321918 -0.548675 
0.353133 -0.114170 9.862497 0.389295 0.011376 -0.921043 
-0.479431 0.132735 9.856599 -0.703236 0.451373 0.549292 
-0.469317 0.162782 9.869444 -0.935938 0.301407 0.182139 
-0.345088 -0.402358 10.542559 -0.225302 -0.831479 0.507820 
-0.658954 0.590004 11.166162 -0.792044 0.608977 -0.042589 
-0.667570 0.580341 11.208632 -0.849617 0.511245 -0.129536 
-0.896361 -0.144154 10.469930 -0.997449 -0.005277 -0.071183 
-0.186134 0.143722 11.115221 0.036340 0.625998 -0.778978 
-0.031018 -0.027884 10.803320 -0.120873 0.204092 0.971461 
-0.516305 0.105425 10.133366 -0.503114 0.851918 -0.145301 
-0.903673 -0.273037 10.957619 -0.868138 -0.420861 0.263082 
-0.909161 -0.072428 10.809100 -0.905325 0.401042 0.139828 
-0.909281 -0.082317 10.822870 -0.922914 0.263196 0.280995 
0.203189 0.268480 10.093401 0.332141 0.936289 0.114218 
-0.176555 0.237620 10.517101 0.071382 0.959841 0.271312 
-0.578484 -0.046094 10.076892 -0.741224 0.183273 -0.645753 
-0.356854 -0.450980 9.935565 -0.659888 -0.620211 0.424130 
-0.045890 0.252351 9.876653 0.072606 0.970790 -0.228683 
-0.541101 0.053725 10.031993 -0.772288 0.631462 -0.069474 
-0.267903 0.358136 10.366522 -0.573081 0.734662 0.363112 
0.343242 0.126442 10.507320 0.659042 0.721472 0.212466 
0.233928 0.196868 9.975952 0.416296 0.563832 -0.713296 
-0.771832 -0.346970 10.572369 -0.681203 -0.574701 -0.453521 
-0.697118 0.147261 10.264165 -0.551941 0.712674 -0.432962 
-0.871972 -0.064263 10.522230 -0.876079 0.404716 0.262089 
-0.298676 0.252287 10.416469 -0.673646 0.626244 0.392453 
0.319638 0.197041 10.280559 0.689160 0.724220 0.023759 
-0.365043 -0.417513 10.191062 0.108904 -0.986263 -0.124195 
-0.622824 0.396044 11.099681 0.977777 0.135201 -0.160226 
-0.462830 -0.028589 10.799490 0.667897 0.302186 0.680145 
0.227707 0.163975 10.561201 0.196060 0.825191 0.529735 
0.608603 -0.131614 10.109709 0.993251 -0.070497 -0.092099 
-0.666857 0.089355 10.917060 0.230240 0.632957 -0.739158 
-0.684671 0.083225 10.908940 -0.050433 0.829207 -0.556662 
-0.230795 -0.494324 10.432190 -0.652128 -0.473810 0.591805 
-0.568117 0.048928 10.850440 0.561160 0.808180 0.178731 
-0.541367 0.038870 10.842200 0.355148 0.799413 0.484570 
-0.241603 -0.442721 10.165251 -0.811210 -0.479419 -0.334807 
0.222770 0.269850 10.178420 0.646357 0.761727 -0.044651 
-0.127769 0.383295 10.284712 0.209063 0.971287 -0.113554 
-0.117695 0.382915 10.256651 0.129893 0.991524 0.002723 
-0.375712 0.074803 10.743340 0.334324 0.575635 0.746238 
-0.014984 -0.424115 10.614228 0.013028 -0.976268 0.216173 
0.097632 -0.385338 9.846475 0.008983 0.022607 -0.999704 
-0.294715 -0.312991 10.675359 -0.076160 -0.679072 0.730110 
0.455115 -0.171662 10.361912 0.993712 -0.065110 0.091089 
-0.802229 -0.440343 10.934418 -0.451594 -0.638277 0.623430 
-0.434958 -0.039160 11.167150 0.019934 -0.822253 0.568773 
-0.480871 -0.015524 11.167780 -0.551672 -0.344161 0.759744 
-0.466082 -0.028918 11.168420 -0.350767 -0.574657 0.739414 
-0.872439 -0.457022 10.824828 -0.850482 -0.471052 0.234072 
0.106562 -0.524466 10.089177 0.337822 -0.940896 0.024319 
-0.268485 -0.004693 10.745280 -0.109289 0.277825 0.954395 
-0.086510 0.319029 10.011696 0.096705 0.822930 -0.559852 
-0.539078 0.181929 10.598371 -0.165844 0.939897 0.298478 
-0.624126 0.115730 11.006510 0.996052 -0.070661 0.053729 
-0.628380 0.115611 11.036410 0.937176 -0.233669 0.259037 
-0.214966 -0.441708 10.516638 0.083903 -0.948285 0.306131 
-0.064158 -0.347568 9.891938 0.001468 -0.096745 -0.995308 
-0.014294 0.062255 10.765250 0.158103 0.570106 0.806215 
0.292295 -0.389192 10.521309 0.555062 -0.614322 0.560816 
-0.567885 0.079406 10.730730 0.001965 0.833887 0.551932 
-0.895421 -0.124509 10.402130 -0.992576 0.044996 -0.113001 
-0.331161 -0.395103 9.998056 -0.502403 -0.435642 0.746865 
0.074139 0.315471 10.420666 0.480150 0.765197 0.428871 
-0.184974 -0.434404 10.530088 -0.115257 -0.974991 0.190021 
-0.586841 0.023465 9.966878 -0.547767 0.382917 0.743859 
-0.169490 0.366610 10.409919 -0.037511 0.849092 0.526912 
-0.577255 -0.166151 10.078320 -0.247370 -0.213689 -0.945064 
-0.771905 0.038913 11.028340 -0.950683 0.013692 0.309863 
-0.134729 0.214023 11.271801 0.670150 -0.667801 0.323946 
-0.131570 0.209572 11.257121 0.634198 -0.678252 0.371171 
-0.567200 0.113245 9.841106 -0.243062 0.869081 -0.430835 
0.065061 -0.565928 10.356082 0.282571 -0.957577 0.056566 
0.065042 -0.558789 10.383447 0.202962 -0.896717 0.393325 
-0.910658 -0.151808 10.933339 -0.860428 0.503667 0.077355 
0.266380 0.226053 10.119849 0.628297 0.758663 0.172261 
0.285202 0.207982 10.122349 0.712718 0.700286 0.040404 
-0.752855 0.519628 11.264672 -0.438267 0.691380 -0.574383 
-0.484961 -0.346798 10.639149 0.069806 -0.770202 0.633968 
0.597202 -0.181759 10.178139 0.901535 -0.251251 0.352290 
-0.135013 0.118216 11.136270 0.691819 -0.717547 0.080699 
0.001110 -0.200270 9.869779 -0.634323 -0.429085 -0.643056 
0.014708 -0.258794 9.888321 -0.037863 -0.128412 -0.990998 
0.019255 -0.275923 9.890394 0.030056 -0.087793 -0.995685 
0.027503 -0.311503 9.892892 0.033438 -0.026998 -0.999076 
-0.810695 0.006457 10.614720 -0.663276 0.743982 -0.080970 
-0.734724 -0.233455 11.059839 -0.082780 -0.099564 0.991582 
0.425779 0.037970 10.429869 0.880017 0.367323 0.301072 
0.014006 0.234320 9.848343 0.045244 0.639627 -0.767353 
0.375018 -0.316063 10.027007 -0.161020 -0.980144 0.115717 
-0.238626 0.118637 11.197620 0.461206 -0.819210 0.340858 
-0.097795 -0.498001 9.872709 0.278760 -0.958461 0.060379 
0.441667 -0.061693 10.473563 0.944507 0.106566 0.310726 
-0.430993 0.095413 11.076580 -0.309558 0.900235 -0.306189 
-0.578898 0.176179 10.583241 -0.290632 0.927138 0.236532 
0.462172 -0.194264 10.229791 0.871634 -0.374490 0.316245 
-0.076465 0.308946 9.996472 0.064229 0.912795 -0.403336 
-0.046472 0.307417 9.996643 0.012077 0.947419 -0.319768 
-0.664605 0.437348 11.022042 0.782670 0.076845 -0.617675 
-0.691845 0.467115 11.021832 -0.078993 0.420497 -0.903849 
-0.930784 -0.132488 10.782230 -0.972010 0.151131 0.179879 
-0.772789 -0.279026 11.043949 -0.234321 -0.267762 0.934557 
-0.531345 -0.333062 10.141572 -0.184197 -0.555812 -0.810644 
-0.534550 -0.304805 10.125325 -0.322735 -0.538148 -0.778613 
-0.787218 -0.354899 10.467551 -0.584842 -0.804375 0.104595 
-0.453810 0.212668 9.881677 -0.902473 0.348234 0.253525 
0.278981 0.086201 10.637720 0.381552 0.633991 0.672661 
-0.425002 -0.420539 9.937704 0.161159 -0.882764 0.441312 
0.223381 0.258752 10.106786 0.410121 0.907304 0.092734 
0.233583 0.255115 10.092366 0.524999 0.848777 0.062880 
-0.054960 -0.555985 10.105285 0.233088 -0.899642 -0.369208 
-0.085181 -0.555487 10.104985 -0.071985 -0.950215 -0.303166 
0.480441 -0.171550 10.225422 0.094473 -0.347644 0.932855 
-0.628077 0.415908 11.162622 0.919268 -0.117165 0.375790 
0.386899 -0.332669 10.441001 0.818497 -0.512936 0.258765 
-0.923003 -0.212231 10.823719 -0.850387 -0.117036 0.512976 
-0.609119 -0.355004 10.178342 -0.249960 -0.692393 -0.676839 
-0.639661 -0.355625 10.190470 -0.297930 -0.685877 -0.663935 
0.519248 -0.082116 9.961654 0.672143 0.145665 -0.725951 
-0.799154 0.057315 10.780600 -0.356278 0.919397 0.166656 
-0.273861 -0.416636 10.220612 -0.809962 -0.461281 -0.362191 
-0.262775 -0.447422 10.236038 -0.786011 -0.494295 -0.371294 
-0.010997 0.153256 10.682271 -0.202121 0.639724 0.741552 
0.021456 0.145714 10.693761 -0.092879 0.647877 0.756061 
-0.580289 0.066558 10.796330 0.348166 0.935191 0.064801 
-0.862020 -0.105045 10.305924 -0.938065 0.095032 -0.333171 
-0.856250 -0.115101 10.292030 -0.827499 0.088674 -0.554421 
-0.726288 -0.357331 10.248899 -0.584705 -0.660343 -0.471239 
-0.735939 -0.366261 10.276949 -0.605046 -0.687420 -0.401714 
0.164927 -0.418086 10.571228 0.171888 -0.696078 0.697086 
0.185107 -0.398483 10.584859 0.194466 -0.799346 0.568532 
-0.266388 0.029927 9.883360 -0.029531 -0.002623 -0.999560 
0.071055 0.328139 10.393999 0.378100 0.903649 0.201145 
-0.547530 0.197233 10.282756 0.037647 0.910820 -0.411084 
-0.911122 -0.343169 10.647299 -0.782523 0.126592 -0.609616 
0.141654 0.159233 10.650061 0.331134 0.850308 0.409055 
0.168366 0.157874 10.630171 0.324340 0.844114 0.426937 
0.286828 -0.432254 10.226858 0.478993 -0.789417 -0.383910 
-0.889531 -0.124004 10.509990 -0.980695 0.058112 0.186709 
0.120506 -0.488388 10.005151 0.533112 -0.658482 -0.531218 
-0.609073 -0.152297 9.923236 -0.408985 -0.592737 0.693826 
-0.245149 -0.540326 10.311095 -0.742758 -0.654576 -0.140856 
-0.485008 -0.415919 10.232770 -0.029569 -0.862722 -0.504813 
-0.798641 0.018188 10.958990 -0.680957 0.703619 0.203022 
-0.647273 0.474501 11.066872 0.890324 0.089832 -0.446378 
-0.288670 0.264195 10.120810 -0.935234 0.197231 -0.294002 
-0.110742 0.087522 10.734190 -0.403351 0.638467 0.655490 
-0.086528 0.103522 10.730020 -0.211058 0.717462 0.663855 
-0.341216 -0.493113 9.895909 -0.814854 -0.578832 0.031090 
-0.343542 -0.484644 9.867975 -0.748965 -0.610040 -0.258655 
0.056019 0.293477 10.457088 0.337964 0.520518 0.784118 
-0.764158 -0.233786 10.199841 -0.659468 -0.241963 -0.711727 
-0.527007 0.141094 10.193373 -0.017052 0.780317 -0.625152 
-0.642567 -0.337759 9.844971 -0.180543 -0.040454 -0.982735 
-0.011433 0.159105 9.856310 -0.156423 -0.810481 -0.564493 
0.064436 0.012908 10.792820 0.077172 0.392763 0.916396 
0.059769 -0.015770 10.804040 0.085844 0.250691 0.964253 
-0.799858 -0.001671 11.000560 -0.756837 0.568368 0.322732 
0.053672 -0.317925 10.757769 0.014509 -0.587846 0.808843 
0.191744 -0.238752 10.757749 0.350308 -0.299099 0.887595 
0.320656 -0.186980 10.675379 0.730316 -0.075805 0.678891 
-0.317456 0.006295 10.747030 0.372021 0.269149 0.888346 
-0.064896 -0.513549 10.003784 -0.135981 -0.806667 -0.575151 
0.220892 0.239504 10.406333 0.383210 0.856957 0.344638 
0.446150 -0.239447 10.262443 0.926506 -0.367389 -0.081316 
0.324423 -0.416540 10.254772 0.676942 -0.675653 -0.291964 
0.116633 -0.519085 10.116765 0.573863 -0.792902 -0.204909 
0.132903 -0.525418 10.144913 0.294449 -0.879888 -0.372957 
-0.742776 0.118944 11.116390 -0.484707 -0.435112 0.758773 
-0.314315 0.194293 10.123251 -0.882085 0.372914 -0.287856 
-0.693828 -0.408088 10.305426 -0.439272 -0.826877 -0.351162 
-0.671575 0.366964 11.204901 0.589073 -0.183070 0.787069 
-0.315627 0.232988 9.980731 -0.347290 0.380563 0.857066 
0.159015 -0.313238 10.727879 0.446733 -0.600281 0.663395 
0.004887 -0.427905 10.586288 0.165353 -0.974103 0.154210 
-0.534959 -0.389772 10.584429 0.089846 -0.798858 0.594772 
-0.140732 -0.068163 9.883739 -0.023229 0.024800 -0.999423 
0.391473 -0.269754 9.921645 0.332970 -0.510834 -0.792578 
0.064858 -0.497645 9.974408 0.206405 -0.750167 -0.628209 
0.177346 0.052305 10.736180 0.403007 0.438740 0.803177 
-0.594984 -0.377886 10.597649 -0.024020 -0.829139 0.558526 
-0.574940 -0.360217 10.625119 0.076542 -0.957798 0.277063 
0.184956 -0.472824 10.462191 0.158999 -0.974553 0.158004 
-0.764979 -0.507682 10.858558 0.062229 -0.869041 0.490812 
-0.410037 0.007153 10.984940 0.452259 0.046286 -0.890685 
-0.393802 -0.013763 10.995250 0.548851 -0.278181 -0.788275 
-0.725643 0.170437 11.151731 -0.202197 -0.446657 0.871558 
-0.144984 -0.424910 10.586208 -0.235525 -0.920820 0.310836 
-0.551543 -0.096045 10.061755 -0.726212 -0.447241 -0.522103 
-0.572185 -0.086775 10.075347 -0.549637 -0.183612 -0.814976 
-0.623698 0.505855 11.194012 0.967469 -0.166442 0.190528 
-0.096844 0.338896 10.070102 0.156698 0.981504 -0.109984 
-0.704829 -0.258041 10.165679 -0.532674 -0.314006 -0.785913 
-0.707511 -0.231538 10.154953 -0.578044 -0.394591 -0.714257 
-0.615278 0.077999 9.899873 -0.316139 0.883906 0.344626 
-0.080863 -0.361848 9.892238 -0.009764 -0.112352 -0.993620 
-0.444987 0.084835 10.753160 0.014071 0.592891 0.805160 
-0.384976 -0.415704 10.500638 -0.235637 -0.915437 0.326268 
-0.006934 -0.054988 9.867942 -0.725441 0.317890 -0.610477 
-0.668710 -0.228964 10.126921 -0.378473 -0.414027 -0.827853 
-0.676963 -0.261273 10.148396 -0.439267 -0.430877 -0.788283 
0.388181 0.021035 10.540670 0.704442 0.398350 0.587434 
0.388283 0.048183 10.526610 0.777488 0.340140 0.528978 
0.395657 0.058074 10.498694 0.868110 0.431624 0.245125 
-0.396908 0.142324 10.151398 0.038694 0.916454 -0.398264 
-0.905947 -0.426571 10.658328 -0.757855 -0.431810 -0.489076 
-0.437169 0.095698 9.836921 0.077643 -0.012859 -0.996898 
0.016763 0.215513 10.553371 0.150783 0.915208 0.373709 
-0.385096 -0.427510 10.276200 0.271563 -0.947968 -0.166160 
0.042504 0.344971 10.226071 0.175377 0.966559 -0.187102 
-0.217420 -0.371835 9.889770 0.021850 -0.074053 -0.997015 
-0.640566 -0.390194 10.881819 0.903231 -0.428863 -0.015840 
-0.336965 -0.282153 10.708019 0.276624 -0.581294 0.765230 
0.178346 -0.449253 10.005130 0.315040 -0.688396 -0.653346 
-0.228512 -0.114326 10.769010 -0.276324 0.022782 0.960794 
-0.182110 -0.537616 10.197305 -0.473478 -0.847301 -0.240624 
-0.500787 0.052560 11.046310 -0.494241 0.844216 -0.207427 
-0.490886 0.063259 11.075990 -0.585787 0.810280 -0.017302 
-0.470651 0.060640 11.031790 -0.305934 0.841408 -0.445462 
-0.032463 -0.199817 10.806129 -0.111132 -0.121771 0.986317 
-0.076855 -0.183705 10.802969 -0.167262 -0.087996 0.981978 
-0.786290 -0.230236 11.052279 -0.194946 -0.106654 0.974998 
-0.784832 -0.128496 11.053330 -0.214686 0.107709 0.970726 
-0.775660 -0.102501 11.052520 -0.211135 0.137013 0.967806 
-0.022110 0.316629 10.459858 0.146618 0.586992 0.796206 
-0.250231 0.184933 9.873677 -0.018782 -0.809817 -0.586382 
-0.272428 0.186280 9.870385 0.041023 -0.845371 -0.532602 
-0.454996 -0.408011 9.964887 -0.078188 -0.751578 0.654994 
-0.691970 0.204028 10.951341 -0.084021 0.248589 -0.964958 
-0.755745 0.004652 10.202081 -0.638362 0.324990 -0.697765 
-0.055071 -0.583086 10.274165 -0.253388 -0.948611 0.189554 
-0.665181 0.407544 11.211121 0.667487 -0.257732 0.698595 
-0.466417 -0.144433 10.836569 0.851502 -0.014260 0.524157 
-0.801763 0.085383 10.354684 -0.871297 0.481263 -0.096059 
-0.576724 -0.129574 11.056570 0.085930 -0.126469 0.988242 
-0.864575 -0.247297 10.517939 -0.844846 -0.441081 0.302791 
-0.536509 -0.291847 9.843310 0.035432 -0.036368 -0.998710 
-0.899696 -0.147909 11.009499 -0.711143 0.139239 0.689121 
-0.538047 0.221159 10.384109 0.028520 0.979892 -0.197480 
-0.682663 -0.098869 9.909329 -0.608053 -0.684623 0.401950 
-0.652279 -0.288372 9.897521 -0.885025 0.320264 0.337879 
-0.255852 0.306056 10.430493 -0.514986 0.386502 0.765118 
-0.552688 -0.376421 10.769259 0.719457 -0.627626 0.297434 
-0.591308 -0.408424 10.755128 0.448041 -0.865549 0.223795 
-0.649871 0.372679 11.023541 0.778699 0.249940 -0.575463 
-0.357383 -0.007630 11.021430 0.560765 -0.549085 -0.619716 
0.538716 -0.268495 10.161447 0.379057 -0.815266 0.437787 
-0.237403 0.352955 10.169253 -0.549565 0.740597 -0.386644 
-0.187634 0.388714 10.228739 -0.006294 0.990373 -0.138284 
-0.197535 0.382557 10.200013 -0.047317 0.980712 -0.189646 
-0.227695 0.367376 10.184388 -0.475418 0.803838 -0.357521 
-0.863817 -0.316856 10.986319 -0.677331 -0.395168 0.620536 
-0.880483 -0.320003 10.958949 -0.849755 -0.330752 0.410511 
-0.688648 -0.438137 10.615908 0.388288 -0.272253 -0.880404 
-0.708100 -0.424800 10.605068 0.258635 -0.253600 -0.932092 
0.457689 -0.219801 9.931023 0.441592 -0.283978 -0.851089 
0.211784 0.221642 10.473839 0.351794 0.930723 0.099976 
0.535789 -0.001197 10.158041 0.393758 0.810973 0.432755 
-0.649403 0.088715 10.753080 0.032642 0.998735 0.038239 
-0.150862 0.157021 10.667861 -0.084408 0.802251 0.590989 
-0.683644 0.046337 9.881281 -0.797283 0.423767 0.429839 
-0.695501 0.014987 9.878481 -0.735305 0.571787 0.363850 
0.409408 -0.311848 10.373454 0.880356 -0.443321 0.168643 
-0.261116 -0.513953 10.309917 -0.894644 -0.427167 -0.130923 
-0.190190 -0.529435 9.918112 0.298221 -0.953676 0.039582 
0.525192 -0.251104 10.191266 0.151730 -0.712349 0.685228 
0.060863 0.214715 10.515271 0.161302 0.960183 0.228101 
0.078986 0.218805 10.499879 -0.010152 0.856498 0.516050 
-0.437872 0.215731 10.355323 0.091377 0.981071 -0.170732 
-0.530219 0.018785 10.971960 -0.178352 0.892235 -0.414859 
0.130443 0.167216 10.638671 0.229418 0.818490 0.526727 
0.094930 0.153787 10.682131 0.116146 0.863249 0.491234 
-0.474749 -0.440637 10.445715 0.411969 -0.908735 -0.066956 
-0.444858 -0.430297 10.416878 0.191661 -0.980670 -0.039390 
-0.454954 -0.433794 10.445381 0.305701 -0.949812 0.066359 
-0.218427 -0.450804 10.067019 -0.847215 -0.530094 -0.035030 
-0.184644 -0.482087 10.028816 -0.634153 -0.685988 -0.356751 
-0.751102 0.168685 10.985771 -0.782120 0.153288 -0.603979 
0.226575 0.189536 10.529021 0.323818 0.740006 0.589519 
-0.424838 -0.405025 10.556889 0.363593 -0.866670 0.341588 
0.216001 -0.063528 9.846735 -0.373465 -0.210824 -0.903370 
0.424740 -0.131648 10.515140 0.921841 -0.070788 0.381050 
-0.467773 0.210129 10.326602 0.148431 0.912687 -0.380750 
-0.477636 0.198354 10.297422 0.122601 0.897570 -0.423482 
-0.277460 0.356567 10.253955 -0.572684 0.811616 -0.115378 
-0.060311 -0.146464 10.807439 -0.157979 -0.022141 0.987194 
0.506397 0.013371 10.152197 0.114216 0.797490 0.592422 
-0.318598 0.173511 9.996768 -0.574861 0.062342 0.815873 
-0.373231 -0.439185 9.854915 -0.485344 -0.478980 -0.731450 
-0.818672 0.043328 10.706830 -0.415945 0.884393 -0.211751 
0.195080 -0.390591 10.598419 0.166937 -0.849805 0.499964 
-0.284150 0.059482 11.287530 0.437176 -0.825751 0.356388 
0.136708 -0.532362 10.320391 0.225619 -0.916960 0.329059 
-0.850735 -0.214599 10.319456 -0.837784 -0.461952 -0.291063 
0.404169 -0.201617 10.542039 0.928111 -0.130689 0.348612 
-0.461210 0.008644 9.836712 0.041664 -0.016088 -0.999002 
-0.444006 0.023855 9.837168 0.003945 -0.002131 -0.999990 
0.326340 0.150587 10.454844 0.631941 0.664546 0.398785 
-0.638562 0.239206 10.985241 0.782386 0.136855 -0.607571 
-0.397313 0.174409 10.224861 0.140765 0.951689 -0.272898 
-0.377140 0.168549 10.210076 -0.127345 0.888756 -0.440336 
-0.714952 -0.534128 10.732138 0.086373 -0.988096 0.127301 
-0.057710 0.280415 10.482131 0.028706 0.483957 0.874621 
-0.332069 0.145937 10.109524 -0.817786 0.481180 -0.315738 
-0.127384 0.383050 10.214339 0.089036 0.990799 -0.101934 
0.234619 -0.070204 9.843557 0.059036 0.019447 -0.998066 
-0.533816 -0.117052 10.013995 -0.718307 -0.670595 0.185306 
-0.763281 0.415643 11.245432 -0.415109 -0.457873 0.786153 
-0.248115 0.377759 10.311961 -0.369662 0.929163 -0.002561 
-0.053646 0.008231 10.790310 -0.100826 0.292722 0.950867 
-0.184980 -0.416033 10.585678 -0.070915 -0.923309 0.377455 
-0.687451 -0.347553 10.208435 -0.379244 -0.619428 -0.687374 
-0.659714 -0.357804 10.203349 -0.340229 -0.684371 -0.644888 
-0.457969 0.060559 10.768310 0.047008 0.446777 0.893410 
-0.426785 0.126195 10.107420 0.152623 0.938950 -0.308348 
-0.456539 0.125779 10.106919 -0.205361 0.920911 -0.331285 
-0.418554 0.213765 10.513781 0.055897 0.990892 0.122512 
-0.444942 -0.408956 10.557168 -0.000856 -0.901748 0.432261 
-0.454967 -0.383283 10.598179 0.033114 -0.777333 0.628217 
-0.624974 -0.451457 10.376074 -0.086466 -0.970694 -0.224227 
-0.186112 0.090940 9.886738 0.040966 0.028251 -0.998761 
-0.158011 0.105326 9.888262 0.005203 0.010360 -0.999933 
-0.022366 -0.473338 9.883057 0.317562 -0.945360 0.073819 
-0.877690 -0.012467 10.684920 -0.737449 0.557149 -0.381777 
-0.905225 -0.053156 10.686220 -0.899987 0.429685 -0.073448 
-0.304964 -0.445757 10.474329 -0.007903 -0.947178 0.320610 
0.460243 -0.039234 10.237836 0.953756 0.293460 0.065038 
0.284741 0.016319 9.881475 0.211579 0.626266 -0.750350 
0.413648 -0.283254 10.439400 0.866445 -0.460337 0.193295 
0.419587 -0.261619 10.458191 0.852274 -0.440229 0.282537 
-0.550935 -0.378503 10.185957 -0.040236 -0.861194 -0.506682 
-0.717279 -0.050239 11.056420 -0.018411 -0.013735 0.999736 
-0.356336 0.108658 10.699600 0.366787 0.683716 0.630873 
-0.134970 -0.543952 10.201641 -0.010180 -0.973621 -0.227945 
-0.811465 -0.163093 11.050089 -0.247397 0.024452 0.968606 
-0.622750 0.245787 11.021741 0.965243 0.021031 -0.260507 
-0.118005 0.387162 10.341385 0.169531 0.984855 0.036342 
-0.148129 0.390668 10.341519 0.121449 0.981404 0.148649 
-0.638844 -0.408356 9.892941 -0.857197 -0.403499 0.320003 
-0.737727 -0.405562 10.428413 -0.577923 -0.814078 0.057283 
-0.885378 -0.102160 10.877880 -0.914764 0.227236 0.334023 
-0.186556 0.293255 9.980313 -0.221551 0.857474 -0.464385 
-0.185539 0.297444 10.459551 -0.191403 0.338198 0.921405 
-0.231843 -0.439807 9.848487 0.027678 0.338062 -0.940717 
-0.242184 -0.417104 10.093351 -0.799233 -0.598617 -0.053707 
-0.235633 -0.425520 10.065789 -0.822798 -0.568092 -0.016572 
0.102760 -0.552855 10.266228 0.450050 -0.891740 0.047486 
0.120599 -0.543848 10.239549 0.254914 -0.951582 -0.171789 
0.102149 -0.551921 10.225800 0.502824 -0.860563 -0.081237 
0.495021 -0.276339 10.164942 0.029652 -0.801958 0.596644 
-0.504976 -0.403682 10.542609 0.138152 -0.875977 0.462146 
-0.515005 -0.426448 10.501568 -0.241356 -0.869091 0.431773 
0.128317 -0.536974 10.212712 0.351619 -0.929865 -0.108238 
-0.658407 0.179234 10.438499 -0.466157 0.880597 0.085128 
-0.687967 0.168336 10.394214 -0.268224 0.950828 0.154864 
-0.678527 0.166706 10.437536 -0.413291 0.910113 0.029740 
-0.198340 0.379506 10.368718 -0.223334 0.928601 0.296348 
0.342867 -0.389955 10.200232 0.688407 -0.716985 -0.109676 
0.336700 -0.398860 10.227419 0.501992 -0.861324 -0.078259 
-0.545598 0.074577 10.116597 -0.781819 0.609201 -0.132788 
-0.566631 0.064053 10.129472 -0.271125 0.682948 -0.678288 
-0.365789 -0.082615 9.837187 0.016553 -0.026507 -0.999512 
-0.304760 0.264733 10.164273 -0.941259 0.292229 -0.169213 
-0.204932 -0.477982 10.124344 -0.839173 -0.510803 -0.186732 
-0.215688 -0.460467 10.123470 -0.838372 -0.523610 -0.151542 
-0.871595 -0.471394 10.784268 -0.839098 -0.540942 0.057409 
-0.881094 -0.104767 10.361284 -0.823301 0.149477 -0.547569 
-0.376133 0.290006 9.893513 -0.407219 0.883049 0.233232 
-0.369639 0.305538 9.846856 -0.466112 0.880636 -0.084974 
-0.604332 -0.100455 10.085193 -0.248414 0.126513 -0.960357 
0.260520 -0.021983 10.716680 0.582040 0.244613 0.775496 
-0.641215 0.081085 9.836259 -0.085306 0.778231 -0.622157 
-0.589463 0.063645 9.936711 -0.313328 0.687950 0.654637 
-0.808289 0.028113 10.889850 -0.826238 0.557358 0.081751 
