ply
format ascii 1.0
element vertex 150
property float x
property float y
property float z
property float nx
property float ny
property float nz
element face 0
property list uchar int vertex_indices
end_header
0.775176 1.1771 0.1363564 0.824225927 0.56183595 -0.0706539937
-0.209944 0.630924 1.160222 -0.101425034 0.0639705216 0.992784334
-0.495492 -0.228626 -0.204714 0.0134249023 -0.998940171 -0.0440262075
-1.845448 1.5115 0.665178 -0.986453629 0.163739938 -0.00992322627
0.769806 -0.001888 0.641986 -0.206072937 0.0019455394 0.9785347
-0.865524 -0.098316 -0.286472 -0.746925041 0.612210034 -0.259426014
-0.383404 2.39468 -0.412922 -0.314784053 -0.460621078 -0.82990314
0.327572 -0.193882 -0.43349 0.429448075 -0.498637087 -0.752951131
0.921084 0.640606 0.283502 0.99392349 0.0957568472 0.0542837267
-1.770074 1.2845 0.566962 -0.591972056 -0.804472076 -0.0489261046
1.219652 0.274984 0.223056 0.990942956 0.0765362966 -0.110336995
0.058288 1.51546 -0.1491254 -0.120158954 0.815235689 -0.566526784
0.0500914 1.00666 0.925228 0.0652490126 0.890175172 0.450922087
-1.244094 -0.21151 0.86777 -0.655226406 0.200132124 0.728440451
-0.791358 2.04272 0.080558 0.54343002 -0.377003014 0.750035027
-1.40375 -0.208584 0.180271 -0.593018416 0.409902287 0.693043486
-1.690032 0.823588 -0.0912604 -0.859694752 -0.0100697971 -0.510708853
-0.441072 0.905906 -0.581366 -0.287299872 0.899838599 -0.328251854
-1.037308 1.02716 -0.42843 -0.147117002 0.341017004 -0.928474012
0.0898418 1.1717 0.838916 0.300406018 -0.0357540022 0.953141058
0.258242 0.613896 1.077452 0.159706008 0.291450015 0.94316005
-0.68745 -0.284154 0.95406 -0.598596956 -0.650057952 0.468087965
0.0845414 0.565056 -0.690224 0.291386014 0.160147008 -0.943105045
0.1986014 1.53812 -0.0953374 0.25813593 0.831057774 -0.492654866
-0.41023 1.28132 0.759234 -0.256029966 0.573439923 0.778212896
-1.805974 1.4263 0.1061532 -0.90412597 0.0722209976 -0.421117986
-1.584968 2.09864 0.22249 -0.255841973 0.959418897 -0.118575987
-1.250932 2.2936 -0.75189 0.933374681 0.355625879 0.0483935835
-1.509884 1.49206 1.05968 -0.238597066 0.057510116 0.96941427
-1.401032 2.55826 -1.14033 -0.625019905 -0.318505952 -0.712673892
-0.516434 2.62964 -0.320788 -0.670358907 0.57762792 -0.465794935
-0.77371 0.30277 -0.284922 -0.0594812081 -0.358720049 -0.931548127
-1.622948 0.539074 0.503402 -0.763585277 -0.602330218 0.232671084
-1.395362 0.645064 -0.34127 -0.363313069 -0.15755603 -0.918248175
0.532494 0.183974 0.873056 0.474826206 -0.287778125 0.83169936
0.1827274 1.11742 -0.408054 0.176323038 0.226167049 -0.957997209
-0.969746 0.581636 0.87855 0.199693958 -0.0908579807 0.975636792
-0.089897 -0.022638 1.008224 -0.110629989 -0.69182393 0.713540928
-0.569112 -0.055476 0.976166 -0.505436941 0.672289921 0.540887937
0.1339964 -0.233544 -0.1864598 -0.460333809 -0.884066632 0.0807401664
0.409636 0.709224 -0.532174 0.472316833 0.245358913 -0.8465907
-0.433892 0.10566 -0.62206 -0.484077961 -0.427474965 -0.763500938
-0.619004 -0.24667 0.585612 0.510576293 -0.828840475 0.228769131
-1.32343 -0.233258 0.580602 -0.900222199 0.339691075 -0.27241506
-1.336016 0.20916 0.319352 -0.342463894 -0.916811717 0.205364937
-0.33819 -0.240494 -0.546784 0.269021915 -0.18945494 -0.944316703
-1.298148 1.41814 -0.1767512 0.0373043166 -0.00300144133 -0.999299444
-1.414802 1.7946 0.939916 0.417286161 0.394379153 0.818741317
-1.018726 1.53796 0.666752 0.709026776 0.12616396 0.693803781
-1.035618 1.77074 0.46788 0.829899826 0.451172906 0.328190931
-1.328294 1.25116 0.850482 0.602122974 -0.755699968 0.257614989
-1.672072 1.66928 -0.0339054 -0.629678057 0.307569028 -0.713377065
0.473918 1.41374 0.596868 0.564936159 0.649384183 0.509065143
-0.59503 2.08526 -0.1029194 0.369960997 -0.915956994 -0.155407999
-0.557816 0.80681 -0.63215 -0.677089985 0.588879987 -0.44132699
-0.649198 0.445112 -0.509392 -0.897226064 -0.363905026 -0.250117018
-1.225452 0.417708 0.761558 -0.2758769 -0.631787772 0.724386739
-0.82993 -0.15171 0.851868 0.309888041 0.263815035 0.913439122
-1.541886 2.08328 -0.23795 -0.953085961 -0.302009987 -0.0204234992
-1.326396 2.00334 -0.713304 0.617951128 -0.736474152 -0.275213057
-1.264242 2.44608 -1.231398 -0.357447867 -0.0662317753 -0.931581652
-1.463492 2.08132 -0.638192 -0.963882923 0.237134981 -0.12122999
-1.51207 0.693442 0.76795 -0.530453919 -0.286269956 0.797914878
0.86728 0.095644 -0.1288892 0.101241949 0.232662883 -0.967273514
1.021522 0.135778 0.595904 0.430394178 -0.159114066 0.888506368
0.926204 0.640964 0.203528 0.996660809 0.0803302846 0.0146381972
-1.653406 0.524204 0.0501982 -0.812423153 -0.474683089 -0.338592064
-1.456724 0.958602 -0.286808 -0.40779911 0.289184078 -0.866067234
0.915378 -0.137952 0.439602 0.441592113 -0.851088218 0.283981073
-1.20734 1.3866 -0.1998348 -0.238120971 0.545944933 -0.803269901
-1.47034 1.08116 0.746302 -0.386096851 0.125489952 0.913882648
-0.35957 0.36688 1.07086 -0.481098854 -0.274556917 0.832563747
-0.729916 1.33258 0.638438 0.0344593149 0.462854201 0.885764384
-0.1051958 -0.180918 0.966028 0.286749936 0.0529004881 0.956543785
0.1269 -0.29689 0.891472 0.0644904774 -0.893596687 0.444213844
0.297812 1.24772 -0.341488 0.409837215 0.406862213 -0.816392428
-0.810458 1.57364 0.1287244 0.149713975 0.983946836 -0.0971305838
-0.610286 -0.303822 0.422752 0.646013622 -0.748265562 0.150880912
-1.04361 0.063842 0.532732 -0.99460132 0.0895042288 0.0525091169
-1.489702 0.326568 0.1142384 -0.627525163 -0.764648199 -0.146715038
-1.195352 0.592522 -0.387794 -0.288209025 -0.262184023 -0.920975079
-1.33185 0.28398 -0.0750142 -0.525974931 -0.584258923 -0.618054919
0.0943516 -0.306892 0.857712 0.0236955955 -0.992967812 0.115988978
-0.1657596 1.60204 0.1324176 -0.159952946 0.983881668 -0.079949473
-1.250658 2.1111 0.514854 0.123623041 0.974014326 0.189772064
-1.033882 1.95608 0.328332 0.983118017 -0.0134305002 0.182479003
-1.807052 1.32028 0.566198 -0.773228443 -0.62869736 -0.0828094474
-1.248026 1.33856 0.82736 0.780129072 -0.459011043 0.425097039
-1.596874 1.38498 -0.0999624 -0.560611723 -0.239136882 -0.792797608
0.1497654 -0.02212 1.010094 0.295448186 -0.52285733 0.799581504
-1.668418 0.823548 0.609702 -0.753757997 -0.0907846996 0.650850997
0.073893 -0.218036 -0.1377438 -0.183623913 -0.982215533 -0.0391778814
0.990068 -0.023514 -0.0332158 0.593900884 -0.587768886 -0.549371893
0.338334 1.55796 0.403602 0.462340985 0.860226972 0.215058993
0.22939 0.898836 1.014528 0.224254972 0.628235922 0.745002908
-1.540338 1.25844 0.959542 -0.40754291 -0.762237832 0.502893889
-1.802498 1.51274 0.8906 -0.748706918 0.299626967 0.591321935
-0.649814 0.634672 0.832816 0.143572011 -0.117405009 0.982651078
-0.1728264 0.814062 -0.725596 0.134454017 0.335271043 -0.93247812
0.70809 -0.07704 -0.1208354 0.0624100281 -0.313390141 -0.947571426
-0.1961916 2.3333 -0.41547 0.757659678 -0.637649729 -0.139120941
-0.45916 2.33684 -0.211134 0.313968027 0.57780805 0.753367065
-1.17056 -0.198152 -0.17604 -0.296760906 0.38210688 -0.875172724
-1.263758 -0.100884 -0.023051 -0.390150937 0.849384863 -0.355425943
-0.89002 0.124196 0.780354 -0.443841006 -0.114417002 0.888771012
-1.029994 -0.04542 0.792236 0.0398091863 0.871676699 0.488461831
-1.097718 -0.328242 0.308528 -0.0793848703 -0.996347627 -0.0314554882
-1.447322 1.94236 -0.45725 -0.629221316 -0.759121382 -0.166779084
-1.59116 2.03716 0.664264 -0.297188032 0.850106091 0.434740046
-1.271918 2.0695 0.0251256 0.216165018 0.85734407 -0.467155038
-1.37075 2.4974 -0.917138 0.524827047 0.742731066 0.415821037
-1.278132 2.17402 -0.998918 0.906853954 -0.417971979 -0.0539937973
-1.318616 2.3605 -1.1812 -0.805216097 -0.0353633043 -0.591926071
-1.519326 2.58502 -1.040898 -0.662562244 0.643877237 -0.382666141
0.880072 -0.176922 0.1050504 0.496616148 -0.846413252 -0.192242057
-0.00271424 -0.236704 -0.285824 -0.129759959 -0.739341766 0.660708791
-0.423292 0.866568 1.034808 -0.52307604 0.603560046 0.601753046
-0.534198 0.589824 0.984596 -0.872117659 -0.304449881 0.38304185
-0.443776 -0.303864 0.88459 0.0490946237 -0.946566457 -0.318750154
-0.72811 -0.211598 0.918552 -0.717258009 0.0670939008 0.693570009
0.089328 -0.311936 0.21052 -0.249206079 -0.967263307 -0.0479377152
-0.0274026 -0.264142 0.1437166 -0.731464182 -0.636475158 -0.244662061
-0.333664 0.051438 -0.645542 -0.26157509 -0.421154145 -0.868451299
-0.523296 -0.271168 0.79522 0.356129921 -0.781035826 -0.512985886
1.002496 0.44629 0.1491942 -0.0817684834 0.942113809 -0.325169934
-1.733206 1.0988 0.1475862 -0.925326611 0.288791879 -0.245702897
-0.238548 2.65338 -0.525744 0.811925101 0.348673043 0.468193058
-1.324402 -0.21991 0.721058 -0.938726824 0.295336945 0.177673967
-0.329532 1.22204 -0.393336 0.132828001 0.382746003 -0.914255008
0.51278 0.480922 0.916778 0.80597821 -0.281502073 0.520726136
0.417958 -0.281258 0.175698 -0.269237072 -0.962536257 -0.0321769086
0.0274332 -0.068056 -0.569146 0.109932041 -0.706885264 -0.698733261
-0.442988 -0.230992 -0.1177 0.0395007191 -0.998730484 -0.0312588151
-1.237924 -0.112704 0.573626 -0.547635098 0.764600136 -0.339827061
-0.1978736 1.58564 0.0628576 -0.190582952 0.957872757 -0.214843945
-1.418728 2.03682 0.72338 -0.0752088148 0.86141117 0.502309099
-0.942258 1.6808 0.208042 0.850643827 0.507328897 -0.137921972
0.652758 0.698404 0.84034 0.55543381 -0.113483961 0.823780719
-1.660728 1.09292 0.56542 -0.72987574 0.305188891 0.611670782
1.16286 0.103306 0.423992 0.892956417 -0.292250136 0.34237216
0.68798 -0.047618 -0.12576 -0.0379518085 -0.172448039 -0.984287221
-1.141712 2.06202 -0.01909514 -0.486844833 0.180043938 -0.854731706
-0.708432 2.509 -0.0725784 -0.310317081 0.812774213 0.493053129
-1.115396 1.72126 -0.0787436 0.654402802 0.159349952 -0.739164776
-1.531914 2.22152 -0.578644 -0.570050333 -0.742649434 -0.351446205
-0.374156 -0.270678 -0.365636 -0.124147018 -0.521510077 0.844165125
0.1832496 -0.289784 0.536302 -0.41413581 -0.770870646 0.483993778
-0.530876 2.54372 -0.1724098 0.787405214 -0.300840082 0.538041146
-0.753424 1.51912 0.415358 0.0371073069 0.929111172 0.367934068
-1.481468 2.4451 -0.699136 -0.193350923 0.917852632 0.346643861
