ply
format ascii 1.0
element vertex 150
property float x
property float y
property float z
property float nx
property float ny
property float nz
element face 0
property list uchar int vertex_indices
end_header
-1.840548 1.339288 0.6341467 -0.880499529 -0.431275414 -0.196779307
0.3204887 -0.07517221 0.8692452 0.307703429 0.0276737226 0.951079789
-0.3001414 -0.231366 -0.0182902 0.0392219783 -0.998705856 -0.0323766686
0.8762868 0.9482465 0.317798 0.947905846 0.298615014 0.110921505
0.924833 0.4709473 0.3751307 0.908975605 0.273281802 0.314770402
-0.877507 0.05311059 0.7789777 -0.373780105 0.00914021312 0.927472312
-1.392468 0.404134 -0.1462998 -0.462494979 -0.723890667 -0.511938177
-0.8480378 2.066907 0.133444 0.576316478 -0.243074191 0.78023987
-0.3422324 1.429278 0.6524569 -0.304952589 0.777867372 0.54947818
-1.423604 1.852933 0.9130694 0.266221083 0.539211966 0.79898485
-1.799993 1.241929 0.2890431 -0.635693647 -0.771434157 -0.0279808621
-1.046792 1.861546 -0.00358209 0.469671418 -0.211259508 -0.857192032
-1.134958 1.967504 -0.03397051 -0.1200663 0.0397118499 -0.991971296
-1.299403 2.60404 -1.195725 0.180326096 0.842059083 -0.50834929
0.570215 0.4034189 -0.4492115 0.675775308 -0.216961803 -0.704453908
-0.9524179 0.5068128 0.8515378 0.174600387 -0.348534973 0.920889829
0.2178891 -0.1108732 0.8919374 0.287514114 -0.128003506 0.949184248
-1.2995 -0.2820119 0.8130306 -0.810442583 -0.311918093 0.49587289
0.1683251 1.518764 -0.1401684 0.191188995 0.792594778 -0.578999384
-1.258296 0.4852837 0.8086615 -0.289283507 -0.518841612 0.804436719
0.6055319 1.1969 0.6778426 0.634691672 0.44489418 0.631850972
-0.450193 1.182693 -0.4223782 -0.0947808812 0.537327907 -0.838030611
-1.331577 2.211075 -1.143087 -0.414404011 -0.445246212 -0.793741221
-0.5230576 0.7933256 -0.689671 -0.541209977 0.514422678 -0.665177472
-0.7295217 -0.02395471 -0.2635885 -0.275755594 0.901409982 -0.333794693
0.9732542 0.1510494 -0.1061146 0.2191269 0.1820076 -0.958570099
-1.71927 1.103635 0.09431297 -0.919397325 0.249346207 -0.304195708
-0.6173103 -0.1091649 -0.5708204 -0.0917905178 0.581586449 -0.808289368
-1.486933 2.59825 -1.024327 -0.400306615 0.909556534 0.111631204
-0.9601722 0.1891186 -0.2365591 -0.30284279 -0.261807491 -0.916374968
-1.243804 2.517006 -1.231912 0.363529624 0.309827121 -0.878551858
1.14396 0.2896441 0.4996118 0.723526436 0.19602291 0.661879533
1.199188 0.2361148 0.1242008 0.934211348 0.0336462181 -0.35512968
-1.44774 -0.2572965 0.1603096 -0.879666569 0.144525695 0.453099384
-1.10141 1.916442 0.5964906 0.870585596 0.185664899 0.455641598
-1.679139 1.114487 0.5276885 -0.827956381 0.318341831 0.461678145
-0.215699 1.160871 0.8620426 -0.148645894 0.206743192 0.967037564
-1.587893 2.097317 0.4941292 -0.255886982 0.949312534 0.182558387
-1.439444 1.1465 -0.2206163 -0.457283484 0.365141988 -0.810902672
-0.9627489 1.727846 0.2088041 0.925713842 0.337019215 -0.171673908
-0.2542785 2.311633 -0.2749363 0.596177465 0.458149973 0.659295861
-0.5316363 2.194251 -0.262812 0.0780541905 -0.698715105 -0.711129205
-1.567706 2.268566 -0.6200572 -0.848120277 -0.494492087 -0.190182995
0.7638111 1.091628 0.552927 0.800467301 0.3655148 0.4750274
-1.632395 1.432945 0.9857792 -0.335255998 -0.350606698 0.874458895
-0.2900653 -0.3062521 0.8858882 -0.122256293 -0.958256546 -0.258452685
-0.4733928 0.2850094 -0.6784527 -0.603124961 -0.337931478 -0.722525153
-0.8930457 -0.2072312 -0.4400985 -0.786474607 0.409191004 -0.462623404
-1.553711 1.463354 -0.1366068 -0.419558531 -0.0707413752 -0.904967567
0.401237 0.3843592 -0.5727083 0.45134192 0.00864243839 -0.89230924
-1.200118 1.973997 0.7254766 0.517833707 0.197656303 0.832334211
-1.544118 2.156375 -0.2465037 -0.974922929 0.14353299 0.170069288
-1.038636 -0.294158 -0.24917 -0.20782271 0.0325029616 -0.977626349
-1.084323 -0.2117429 0.9447012 0.0283933093 0.112706397 0.993222577
0.379202 -0.27748 0.383714 -0.0112610686 -0.944519079 -0.328263458
-0.252377 -0.3016847 0.8531052 -0.0290331211 -0.869709834 -0.492708719
-1.234931 2.085044 -0.3915308 0.996181152 -0.0668354235 0.0561795229
0.8989142 0.3663561 0.4992665 0.339544007 0.482694509 0.807289216
0.8903006 0.8146047 -0.02113947 0.936415789 0.188410618 -0.296018428
-1.723449 0.666711 0.122661 -0.89667189 -0.419932696 -0.140128699
-1.414922 0.2620178 0.3828429 -0.542509014 -0.794899521 0.271696007
-0.2343746 1.580984 0.07070401 -0.216560006 0.955129725 -0.202061805
-1.872625 1.461365 0.255682 -0.977470256 0.00696702869 -0.210958191
-1.291682 2.523688 -1.056907 0.742167034 0.507289623 0.43800152
0.9020642 -0.162977 0.377264 0.438356094 -0.871656088 0.219224997
-1.218878 -0.1036755 0.5633117 -0.474581393 0.775532289 -0.416319794
-0.1278232 1.482176 0.6768734 -0.0970300657 0.768017445 0.633035837
-1.154707 2.099272 0.4640227 0.296273204 0.945663612 0.133949702
-1.033599 1.035999 -0.4266664 -0.143715096 0.358893389 -0.922248072
-0.1777469 2.372263 -0.4375644 0.994089855 -0.0760492042 0.0774717943
0.1236938 1.14818 0.8280788 0.215871899 0.241724499 0.946027796
-1.531043 1.508727 1.055126 -0.164104713 -0.0956096174 0.981798576
0.417958 -0.281258 0.175698 -0.330077415 -0.943693844 0.022154661
-1.068716 0.1201129 0.2402104 -0.524643897 -0.804510195 0.278409998
-0.4479077 0.8641617 1.012236 -0.625238986 0.554597288 0.549088388
-0.3443114 0.8341237 -0.7241198 -0.0558224102 0.623675602 -0.779687503
0.9427339 0.430692 0.09692612 0.476746805 0.669261507 -0.569913606
1.00784 0.4174623 0.468986 -0.0975678894 0.820332795 0.563502096
-0.007765141 0.9963236 -0.4743295 0.123858895 0.755210769 -0.643673573
-1.707779 2.05179 0.497859 -0.389023897 0.888730192 0.242526398
-0.7816612 1.368177 0.6214282 0.0299112986 0.577087673 0.816134261
-1.4988 2.056972 -0.332319 -0.983702246 -0.0278409941 -0.177636626
-1.104696 1.102181 -0.373538 -0.243109296 0.267149195 -0.932485484
-1.096621 0.2626455 -0.146926 -0.59500365 -0.427902536 -0.680345557
-1.165679 -0.0546707 0.7979153 -0.305740506 0.896150917 0.321615106
-0.6159742 -0.1924149 1.033363 -0.492717426 0.203277511 0.846113345
-0.3072863 2.727381 -0.4862946 0.375623471 0.883760231 -0.279060678
0.2091 0.3576658 -0.6160851 0.260854401 -0.130947601 -0.956455805
-0.9030423 2.314085 0.09064984 -0.1211604 0.603945698 0.787762497
-1.09315 1.536805 -0.1146788 0.314833016 0.264267414 -0.911615547
0.004847779 -0.304357 0.3100629 -0.514742402 -0.846330403 0.1369858
0.893765 -0.1534549 0.052628 0.474262388 -0.78539708 -0.39777709
-0.3784646 0.951867 0.92764 -0.340122898 0.823065495 0.454840197
0.430357 -0.0854257 -0.3827681 0.768828312 -0.322466405 -0.552194209
-0.7211882 0.8010226 0.8702485 -0.152509709 -0.253145414 0.955331454
-0.3580334 0.6143646 1.151551 -0.109411302 -0.282650705 0.952962615
0.4436165 1.501623 0.4641598 0.428834589 0.859164779 0.279171593
0.5134338 -0.2996762 0.06297459 0.18305299 -0.940223748 -0.287177484
-0.6932713 -0.2449149 -0.3030856 0.468699239 -0.750653162 0.465661738
-0.7432227 2.376444 0.0297285 0.584122771 0.0427171079 0.81054046
-0.2974405 2.307252 -0.2474477 0.360308805 0.638050409 0.68049191
-1.141628 1.753523 0.6501567 0.559544955 0.372666736 0.740289772
-0.6095175 -0.304033 0.4183941 0.600521581 -0.779605276 0.177734195
-0.5490304 0.6994039 0.9783916 -0.878001376 0.0985349373 0.468406287
0.01701946 -0.3052111 -0.3241542 -0.116165099 -0.733067094 0.670162895
0.3680071 0.8235137 0.9585041 0.400536421 0.253516313 0.880511246
-0.8190775 2.21653 -0.2274302 -0.424434194 -0.171637998 -0.889042188
-1.521869 2.125608 -0.1185324 -0.883610255 0.442574078 0.152843392
-0.9987893 1.73953 0.4226753 0.831332449 0.480361128 0.279534516
-0.9960462 1.447558 -0.22326 -0.168715506 0.682108326 -0.711521827
-1.365055 2.174402 -1.0948 -0.767167116 -0.273564706 -0.580187012
-1.370982 0.2155247 0.2508453 -0.444342399 -0.895834198 -0.00639697099
-0.6646852 1.351061 0.6301349 0.0136324196 0.62032668 0.784225074
0.2205749 1.398568 -0.2815191 0.210981095 0.611413785 -0.762666481
0.6598645 -0.1973752 -0.05108312 0.187053805 -0.652747918 -0.73411922
0.5095471 0.1075872 0.8486924 0.5522546 -0.4453263 0.704769
-0.5810049 1.496515 0.04154901 0.0869941894 0.970958493 -0.222871298
-1.807098 1.710551 0.4370393 -0.953648034 0.252834009 0.163188206
-1.700931 1.212133 0.08770002 -0.819046764 -0.381324183 -0.428665681
0.666677 -0.08449375 0.6046476 0.140752699 -0.457942297 0.877768495
-1.355797 1.95559 -0.6096186 0.24238069 -0.948874961 -0.202207592
-1.453198 1.231766 0.947918 0.113057002 -0.884989212 0.451677106
0.04327086 0.7034366 1.150822 0.0732512526 0.0706049425 0.994811136
0.4219546 -0.1948148 0.8323733 0.611993666 -0.236957587 0.754529558
-0.6523899 0.1910307 -0.2539539 -0.685325507 -0.490005505 -0.538724006
0.5034645 1.417368 -0.04390151 0.550250595 0.765948093 -0.332487297
-1.778823 1.747929 0.2258785 -0.898779902 0.355918801 -0.255961901
0.6692463 1.319974 0.370731 0.77227337 0.630975276 0.0739191671
-1.101155 0.928037 -0.4325974 -0.241793704 0.0808726112 -0.966951615
-0.8525252 -0.1186333 -0.3821391 -0.768437786 0.607449789 -0.201266296
0.9673974 0.4374504 0.1298423 0.192636097 0.917853886 -0.347038295
0.4506009 0.5733596 -0.5223726 0.443713116 0.0428528616 -0.895143733
0.7691641 0.3457325 -0.2417178 0.78741384 -0.183609186 -0.588444655
-0.1278664 0.1270537 1.077165 -0.0947406247 -0.374175079 0.922505948
0.1303014 -0.311538 0.327586 0.230974596 -0.971885382 0.0457114892
-0.8251756 -0.3227533 -0.03756128 0.216280084 -0.968520226 -0.123253791
-0.3422731 -0.2124871 0.7913987 -0.0272786612 -0.951683342 -0.305867114
-1.270149 1.327559 0.8707583 0.810505524 -0.449219513 0.375875811
-1.433139 1.972032 -0.7158248 -0.261824591 -0.948368666 -0.179010494
-0.01190748 -0.1033489 -0.5272002 0.122526707 -0.728051342 -0.674483839
-1.403601 -0.1860598 0.008645612 -0.750867046 0.461613128 -0.472347329
0.1490983 1.371113 -0.3099021 0.133263996 0.60384828 -0.785880374
0.3914518 -0.2575408 -0.1709101 0.807895754 -0.550513769 -0.210330788
0.3255922 0.02040801 0.9212008 0.393070695 -0.506781193 0.76724719
-1.462629 2.584582 -1.099496 -0.660713572 -0.069427807 -0.747420468
-1.521347 0.7051905 -0.2739234 -0.715676968 -0.117737495 -0.688436169
-0.6267852 0.06544191 0.7364435 0.172264493 0.205499791 0.963376759
0.9007567 0.7490686 -0.0009105978 0.980405487 -0.0327132296 -0.194254797
-0.5037189 0.4084648 -0.7204698 -0.566125009 -0.324107905 -0.757929112
-1.042384 0.1077537 0.5101546 -0.997970643 -0.0630945427 -0.00858333437
