ply
format ascii 1.0
element vertex 431
property double x
property double y
property double z
property double nx
property double ny
property double nz
end_header
-6.519810199737549 3.879322634809632 9.589962118946159 0.567574977874756 0.268155008554459 0.778428971767426
-7.208885192871094 13.100595952156949 5.511776488735477 -0.417488992214203 0.866375029087067 -0.274039000272751
-7.277005195617676 -1.328694699289359 -0.940511387854990 -0.804910004138947 -0.581583976745605 -0.117810003459454
-4.826220512390137 0.164363915288731 6.440412006837069 -0.000661000027321 0.178407996892929 0.983956992626190
-3.379971981048584 -0.682236450154376 -0.970959665426913 0.262962013483047 -0.944459021091461 -0.197100996971130
-5.086569786071777 -1.577579285518325 0.967926220843553 -0.913532018661499 0.347270995378494 0.211805999279022
-2.996427059173584 -0.995088487847269 4.798179504340508 -0.368133008480072 -0.247569993138313 0.896206974983215
2.691565990447998 -2.887160335351177 1.455414643542732 0.547441005706787 -0.704701006412506 0.451335996389389
-3.509361505508423 -1.612042009168957 -0.670551944791433 0.306432008743286 -0.927639007568359 -0.213506996631622
-4.009480953216553 -1.858654960911089 -0.175417922763504 -0.132190003991127 -0.975517988204956 0.175754994153976
-1.473417997360229 -4.155800233300911 2.024165321010194 -0.008182999677956 -0.904156029224396 -0.427123010158539
-6.197420120239258 2.220536500463251 0.442092908986644 -0.320740014314651 -0.717558979988098 -0.618251025676727
2.238676548004150 1.098458132598723 -1.705683744573175 0.607406020164490 -0.604723989963531 -0.515137970447540
-1.616464972496033 10.622497369834196 7.819779133391229 0.756295979022980 0.202929005026817 0.621962010860443
3.817172050476074 3.636526025320365 1.371686990410344 0.771516978740692 0.038571000099182 -0.635038971900940
-8.566390037536621 0.868549534514954 3.299786851091818 -0.897926986217499 -0.431235998868942 0.088108003139496
-4.972464084625244 -1.513553361025400 3.495696622328476 -0.548259973526001 -0.444314986467361 0.708516001701355
-5.654624938964844 0.104125737913550 -0.590577866295542 -0.625383973121643 0.500171005725861 -0.598936021327972
3.235305070877075 3.177882957666919 6.356081697603391 0.718926012516022 0.666172027587891 0.198396995663643
0.032617498189211 -3.247220375451385 1.741157139692728 -0.069774001836777 -0.955556988716125 -0.286431998014450
-6.452670097351074 11.533212166735986 3.755511398049407 0.418547987937927 -0.736060976982117 -0.532007992267609
-2.758757591247559 -3.957935344874121 1.876959555202499 0.132018998265266 -0.964906990528107 -0.226992994546890
-4.827932357788086 -1.681566489940067 -0.344460261823843 0.197003006935120 -0.960648000240326 0.195820003747940
2.079840898513794 -1.764747204929754 -0.235274620253856 -0.151032000780106 -0.988098025321960 0.029177000746131
-3.635403394699097 -2.413615197971804 0.304598427769645 -0.101700000464916 -0.993680000305176 0.047517001628876
0.212837502360344 5.626595542997311 5.747605936838926 0.012343999929726 0.953786015510559 -0.300233989953995
-7.071754932403564 -0.827483150579773 -1.177886523080597 -0.859978973865509 0.196796000003815 -0.470858007669449
-0.739608526229858 -4.040863409017892 1.882027224255260 -0.132642000913620 -0.921972990036011 -0.363828003406525
-4.357565402984619 2.588401183778314 0.170451835451777 -0.192914992570877 -0.328958004713058 -0.924430012702942
-9.268434524536133 4.809472944543463 6.099725940208747 -0.948238015174866 0.147400006651878 -0.281280010938644
-7.384409904479980 5.061947371900385 4.028265908569722 -0.510779976844788 0.046408999711275 -0.858457982540131
-6.501605033874512 4.860649446533936 2.435509243946717 -0.336715996265411 0.189420998096466 -0.922357022762299
-3.304712057113647 0.810632603200315 -0.609063556789429 -0.288026988506317 0.139220997691154 -0.947448015213013
-2.696221590042114 -2.087840533405496 0.345624599841405 0.427920013666153 -0.902715981006622 0.044578999280930
0.532293498516083 -1.627025904476693 -0.569876975384509 0.245739996433258 -0.968405008316040 0.042463000863791
-8.333020210266113 6.875769815172091 7.444138148686501 -0.715083003044128 0.452455997467041 -0.532859981060028
-2.835017442703247 0.471024596780401 -2.073935546865003 0.072181001305580 -0.914279997348785 0.398598998785019
4.705653190612793 1.143484568580611 1.983861972411082 0.773221015930176 0.505120992660522 -0.383381009101868
-3.669263601303101 -0.239614908525007 6.036289411101627 -0.117146000266075 -0.027714999392629 0.992727994918823
-3.574383020401001 2.530740084371708 0.214147980507180 -0.426436007022858 -0.393983006477356 -0.814204990863800
-8.435790061950684 2.574479083758968 2.192896974464637 -0.876937985420227 -0.285807013511658 -0.386384993791580
2.937721014022827 2.158605552445027 -0.642195742749721 0.699935972690582 -0.118398003280163 -0.704322993755341
-0.506250500679016 -2.734465513068574 5.268481865562078 -0.097382999956608 -0.214987993240356 0.971749007701874
0.715300500392914 -0.127791390977586 -1.424533326494839 -0.534932971000671 -0.838123977184296 -0.106743000447750
4.448235511779785 0.623204377364097 4.221470458173768 0.916185021400452 0.062075000256300 0.395918995141983
-1.576480507850647 -3.561110625368753 2.059194153253927 0.032389998435974 -0.926662981510162 -0.374493986368179
-9.374409675598145 4.078823415509822 7.191378424507622 -0.951166987419128 0.301308989524841 0.067045003175735
-0.095808498561382 3.750563476884844 -1.087617404171624 0.195638000965118 -0.119401000440121 -0.973380029201508
-1.306400537490845 5.230733456005074 5.950575296897000 -0.200531005859375 0.961072981357574 -0.190070003271103
1.263931035995483 -3.168076583612224 1.042779453362087 -0.138727992773056 -0.989223003387451 0.046824000775814
2.081045389175415 2.685566881046194 7.321852561982815 0.393052995204926 0.633825004100800 0.666163980960846
-6.602505207061768 -0.686744364988349 5.640222178977829 -0.327264010906219 -0.207102999091148 0.921958029270172
-1.930598497390747 -2.757471327926894 1.114706670450408 0.032370999455452 -0.997864007949829 0.056747999042273
-7.423930168151855 9.032628333274978 5.875436640207905 -0.901647984981537 -0.320468008518219 -0.290398985147476
-6.466129779815674 -2.765011019494521 0.632624597013599 -0.868149995803833 -0.320298999547958 -0.379108995199203
-1.321786999702454 8.822831785006690 7.200337526408985 0.820728003978729 -0.542715013027191 0.178507998585701
-5.798214912414551 0.345762307955753 0.863763374620871 -0.845044970512390 -0.488694995641708 -0.216971993446350
2.025456905364990 -1.119439641897102 -1.081414066280301 0.181736007332802 -0.980206012725830 -0.078541003167629
-4.902379035949707 5.783491907109443 6.361426910246260 0.861167013645172 0.271389991044998 -0.429812997579575
1.220734953880310 -4.191100381699679 2.054345181403704 0.176153004169464 -0.851235985755920 0.494334995746613
-5.392974853515625 0.571898043036406 -0.192663974238375 -0.705356001853943 -0.111584998667240 -0.700016021728516
5.680254936218262 1.137221202056664 1.494645177435317 0.433082014322281 0.591938972473145 -0.679741978645325
0.786815524101257 -3.633051093247685 1.560950752476957 -0.168654993176460 -0.953033983707428 -0.251556992530823
-7.960124969482422 11.874632438767392 5.528111029960186 -0.985073983669281 0.163629993796349 -0.053424999117851
-7.170800209045410 10.351885096799673 4.011891205311603 -0.731905996799469 -0.518387019634247 -0.442254006862640
-4.222775459289551 0.638374737092062 -1.023298684121667 -0.445683002471924 0.609947025775909 -0.655233979225159
-7.375699996948242 11.719860626575597 5.245382605223777 -0.516344010829926 -0.661315023899078 -0.544104993343353
-2.354089975357056 4.446915005329646 -1.013760263849835 -0.307990014553070 -0.127449005842209 -0.942813992500305
1.175974011421204 -1.627174645504582 6.041837602654769 0.338257014751434 0.097108997404575 0.936029970645905
-4.235827445983887 -0.877438110559611 -1.409084090102282 0.256585985422134 -0.964441001415253 -0.063382998108864
0.551920473575592 -3.115806052410436 1.634164655824129 -0.322962999343872 -0.880856990814209 -0.346100986003876
3.560297966003418 -2.525154512617072 1.014980741463965 0.315028995275497 -0.825501978397369 0.468297004699707
-8.530844688415527 6.173914612417497 7.113122444608906 -0.834195017814636 0.103637002408504 -0.541643977165222
-2.904550552368164 10.158179501811034 8.249580799264359 -0.623615026473999 0.710223019123077 -0.326631009578705
-7.980949878692627 2.060605798480560 1.507373430335073 -0.709419012069702 -0.535901010036469 -0.457749992609024
-2.212834596633911 5.483857283852100 0.642403064363738 -0.319947987794876 0.744372010231018 -0.586126029491425
0.920196473598480 -3.077491860209854 4.405729388127615 0.356833994388580 -0.290055990219116 0.887996017932892
-2.736236572265625 5.679278658515904 4.286057609076528 0.058425001800060 0.820107996463776 -0.569218993186951
-0.602801024913788 -3.386471099904544 1.868768437516417 -0.143542006611824 -0.884886026382446 -0.443138986825943
-2.780441522598267 9.629544745262404 8.746543518702547 0.096357002854347 0.711750984191895 0.695791006088257
-3.644123077392578 1.072169082512819 -3.326000986760390 -0.253342002630234 -0.416889995336533 -0.872937977313995
4.544119834899902 2.747620716940992 2.888061058159448 0.951792001724243 0.150057002902031 -0.267533987760544
-6.889464855194092 5.287608179665743 4.047985779766005 -0.283114999532700 0.212457001209259 -0.935257971286774
1.040281057357788 -1.248052802753357 -0.896066766327049 0.080627001821995 -0.981423020362854 0.174089998006821
-5.255000114440918 -1.190792330113879 2.347521346180551 -0.865859985351563 -0.422820985317230 0.267410993576050
4.977226734161377 0.166191742649762 -0.241946170581435 0.567686021327972 -0.474076986312866 -0.673039972782135
1.820470452308655 -2.496507647007425 0.423851434691785 -0.021375000476837 -0.999544024467468 -0.021307000890374
-1.741803526878357 -3.031316395572288 4.239858106101474 -0.612820982933044 -0.272247999906540 0.741842985153198
-8.373669624328613 3.877313651513350 3.377305615469703 -0.804518997669220 0.233573004603386 -0.546069979667664
-7.763510227203369 12.653365128986291 5.415962393693257 -0.885428011417389 0.220268994569778 -0.409265995025635
-6.428730010986328 -1.454732568731754 0.387711413896036 -0.532105982303619 0.634546995162964 0.560548007488251
-3.733249425888062 8.952320790192251 6.982779103963100 -0.362091988325119 -0.221394002437592 -0.905469000339508
3.702512979507446 4.359526281856371 3.010232991562342 0.709151029586792 0.352387994527817 -0.610678017139435
-7.938274860382080 0.568251622645481 2.252142423301634 -0.727442979812622 -0.684835970401764 -0.042736999690533
4.818772315979004 -1.378391355084234 0.298784021823035 0.532607018947601 -0.845386028289795 0.040647000074387
-0.254139512777328 5.083762104723201 -0.164542243567391 0.274562001228333 0.078854002058506 -0.958330988883972
-5.836589813232422 -0.543182140024345 0.398516263092619 -0.702443003654480 0.604130983352661 0.376296997070313
-0.007335000205785 5.910571536786892 3.119470061284854 0.050717998296022 0.547610998153687 -0.835193991661072
-5.888134956359863 -3.389536275192979 2.800124538027515 -0.391703009605408 0.730198025703430 0.559804022312164
-3.134787559509277 -2.718226457996916 0.517765079851798 0.355203002691269 -0.927766025066376 0.114376999437809
-1.092350006103516 0.592077743056325 -2.843018624993115 0.129908993840218 -0.660607993602753 -0.739404976367950
1.987676978111267 3.704637648033350 7.087198314190713 0.403903007507324 0.860885977745056 0.309413999319077
-4.470657348632813 3.509780128895784 6.900572216870525 0.596314013004303 0.600296974182129 0.532966971397400
-6.049425125122070 6.923747725025272 8.027846779497189 -0.226560994982719 0.973627984523773 0.026827000081539
1.765382528305054 -0.062312821797901 -2.035411946631328 0.562897980213165 -0.795773983001709 -0.223359003663063
-0.871526479721069 -1.868146784326021 6.350577829705613 -0.036306999623775 0.066391997039318 0.997133016586304
-4.100398540496826 7.555495288738598 7.958490516874277 0.514829993247986 0.283495992422104 0.809060990810394
-7.220234870910645 2.426389706829875 0.906319159925314 -0.514021992683411 -0.588301002979279 -0.624247014522552
-7.348599910736084 11.719521474118157 5.955018871048861 0.031736999750137 0.910273015499115 0.412791013717651
-2.632733106613159 -3.485314061643076 3.351122335291703 -0.342943012714386 0.767395973205566 0.541750013828278
-4.925663948059082 6.131656961295565 7.112330891330208 0.977723002433777 -0.146818995475769 0.150003999471664
-5.656674861907959 4.264858799364887 8.639668729926855 0.782895028591156 0.199166998267174 0.589412987232208
2.885236501693726 0.297999960023808 6.337382426626981 0.540408015251160 0.295771986246109 0.787705004215240
-2.925214529037476 -2.309370951057405 2.804884332076338 -0.152829006314278 0.355792999267578 0.921984016895294
-1.210776448249817 4.211563479382544 7.055060755935831 -0.227595999836922 0.957247018814087 0.178543999791145
-6.066110134124756 5.628353673655474 4.240964644472538 -0.129980996251106 0.459632009267807 -0.878545999526978
-5.551829814910889 6.344313714939034 5.653119088798902 0.521364986896515 0.285185009241104 -0.804269015789032
-5.247769832611084 5.308600269911108 8.058810535707106 0.941186010837555 0.161769002676010 0.296647012233734
0.770219027996063 -2.319972717036111 0.154462927400511 0.048505999147892 -0.998780012130737 0.009243000298738
-0.261880487203598 2.061528758970087 -2.260350054386607 0.157534003257751 -0.393541991710663 -0.905708014965057
-5.111555099487305 7.797631287868751 8.328814751785648 -0.434812009334564 0.794872999191284 0.423220992088318
-7.200170040130615 -1.215592463736072 -0.245236789488061 -0.886110007762909 0.445932000875473 0.126304998993874
0.273244500160217 0.542344344748552 -2.733382203595724 0.113004997372627 -0.847374022006989 -0.518832981586456
-9.202115058898926 3.345645998068320 5.600657740221920 -0.755271017551422 -0.655251026153564 -0.014537000097334
-1.317188978195190 11.512927934414455 7.592121616246902 0.683889985084534 0.722486019134521 -0.101527996361256
0.477614492177963 5.382142853876579 0.784160599360901 0.291698008775711 0.526952028274536 -0.798268973827362
2.899013042449951 -2.689327437198291 2.473277740863456 0.586947023868561 -0.342296987771988 0.733707010746002
-1.982181549072266 8.443831837305769 6.957705599947698 0.365779012441635 -0.882826983928680 -0.294654995203018
-6.750840187072754 1.681027443711171 8.966495261569147 0.599193990230560 0.215102002024651 0.771166026592255
-1.710584521293640 9.303810251725816 6.843939938319509 -0.016349999234080 -0.710443973541260 -0.703563988208771
4.192819118499756 -0.949813305323873 -0.448361183294642 0.433564007282257 -0.840460002422333 -0.325037002563477
-5.503145217895508 2.042615945613804 7.002076497989032 0.267948985099792 0.187674999237061 0.944976985454559
5.860720157623291 0.873560852965965 2.258394204604492 0.541347026824951 0.823624014854431 -0.169073000550270
-3.135978460311890 0.382202492865925 6.590110932160354 -0.150600999593735 0.332488000392914 0.931005001068115
-0.385791987180710 -1.444978676589773 -0.194477527334638 -0.383195012807846 -0.922016024589539 -0.055213000625372
3.795372009277344 0.857022160246346 0.041386786820610 0.528189003467560 -0.079878002405167 -0.845360994338989
0.845743477344513 4.013409060903118 -0.748068844301381 0.323219001293182 -0.077743001282215 -0.943125009536743
-7.671879768371582 7.924802177843107 7.019251394549124 -0.882773995399475 0.438643991947174 0.168228998780251
-6.056634902954102 4.672935224026430 2.021652809271302 -0.374898999929428 0.178176999092102 -0.909781992435455
-4.168115615844727 -2.987270722013582 0.715036450515263 0.119038000702858 -0.990652978420258 -0.066600002348423
-2.949892997741699 9.940483252772852 7.389230627348660 -0.411146998405457 -0.022190000861883 -0.911298990249634
-2.221827983856201 -3.924513384097938 3.474806745042022 0.005617000162601 0.604644000530243 0.796476006507874
-7.140930175781250 10.333562786288310 6.616911170859264 0.047566998749971 0.924116015434265 0.379139006137848
1.071451544761658 -1.236284582218056 6.614534081403695 0.320237994194031 0.218697994947433 0.921747982501984
-3.598453998565674 3.534486114348541 0.653950923796165 -0.540565013885498 -0.276731997728348 -0.794486999511719
-7.162260055541992 -0.879840109444865 4.148666603308468 -0.489944994449615 -0.546540021896362 0.679152011871338
-0.993134021759033 3.382094959245776 -1.621112046416670 0.178622007369995 -0.218852996826172 -0.959268987178802
2.446040391921997 -1.150373631540824 -0.944080498023880 0.246610999107361 -0.904249012470245 -0.348592013120651
-1.692302942276001 2.378935724792044 7.424913687487114 -0.262030988931656 0.598381996154785 0.757152020931244
-7.638464927673340 9.784356012854111 6.593515963862812 -0.712704002857208 0.619343996047974 0.329342991113663
-6.718039989471436 -3.267765579081893 1.124726820825743 -0.828858017921448 -0.555244028568268 -0.068554997444153
0.058719500899315 -0.643906960363872 7.096852408370030 0.108949996531010 0.505095005035400 0.856158971786499
-5.122085094451904 -3.023465551383672 0.784399981445153 -0.009411999955773 -0.999728024005890 0.021316999569535
-7.453619956970215 6.082463319335503 4.868282122008074 -0.305177986621857 0.039101000875235 -0.951492011547089
-5.360249996185303 0.351259194737795 6.457420795099712 -0.055550999939442 0.112874001264572 0.992054998874664
-3.033678054809570 1.202328107573654 -1.068498325808636 -0.798642992973328 0.477869987487793 -0.365801006555557
-2.227445602416992 -3.023177966549914 3.207722093402175 -0.463142007589340 0.498670995235443 0.732685029506683
1.258699536323547 -2.650645614517094 4.938276297113182 0.411071002483368 -0.144146993756294 0.900134980678558
-1.822755455970764 1.040181104892855 7.020804042043342 -0.146340996026993 0.351664006710052 0.924616992473602
-7.473285198211670 1.127395045187657 8.688089022242441 -0.162265002727509 -0.286585003137589 0.944212973117828
-5.341360092163086 -1.996368327786372 -0.328157848929781 0.134298995137215 -0.988336026668549 0.071799002587795
-1.762784957885742 -1.849692562126517 6.274194792867474 -0.177001997828484 -0.090250000357628 0.980063974857330
-8.903280258178711 2.194565663990901 3.098955802232158 -0.975166022777557 -0.191969007253647 -0.110454000532627
-7.733984947204590 5.800972870802430 9.178420891507233 -0.148745998740196 0.975552976131439 0.161771997809410
-4.648212432861328 5.891308961353923 3.825706727554239 -0.075131997466087 0.552818000316620 -0.829908013343811
-3.037792444229126 8.597131395213900 6.770890144060599 0.036871999502182 -0.669539988040924 -0.741859972476959
-5.569344997406006 4.793471678092472 1.650309792473301 -0.223910003900528 0.121889002621174 -0.966957986354828
4.100968837738037 3.623691227974151 2.741045577098214 0.825686991214752 0.268950998783112 -0.495889008045197
0.085308000445366 -3.682421301934481 2.835380239288610 0.173632994294167 -0.334044992923737 0.926425993442535
3.932912111282349 2.117708627793485 0.496005029992905 0.817892014980316 -0.078790999948978 -0.569952011108398
-0.465979009866714 -0.104161967093031 7.110044014551843 -0.026531999930739 0.863294005393982 0.504002988338470
-7.626470088958740 4.128040761388102 2.220202661572503 -0.600378990173340 0.143147006630898 -0.786800026893616
3.350965023040771 -1.778102499110720 -0.297825709888014 0.287694990634918 -0.957548022270203 -0.018288999795914
-7.331934928894043 6.995285516880076 6.004521277562638 -0.545756995677948 -0.247972995042801 -0.800410985946655
-3.275895118713379 1.604418722827929 -2.601650783728373 -0.150479003787041 0.403171002864838 -0.902667999267578
-6.555695056915283 10.184253204320969 6.334913751095375 0.673982024192810 0.688220024108887 0.268516987562180
0.133929505944252 -4.344985604018027 2.190801137097056 0.146959006786346 -0.785691976547241 0.600908994674683
2.150451898574829 -2.886923969878730 0.809625626813765 0.210011005401611 -0.971911013126373 0.106227003037930
-1.757178544998169 3.012386579865586 -1.909933740767418 -0.197490006685257 -0.386748999357224 -0.900789976119995
0.423724502325058 2.748780167819373 -1.633625850243865 0.288569986820221 -0.195774003863335 -0.937229990959167
1.528457045555115 -3.312367531970851 2.919213908751165 0.397992998361588 -0.326793998479843 0.857209026813507
-6.010829925537109 2.099668959393380 8.100837188433477 0.711578011512756 -0.157746002078056 0.684669971466064
1.223307013511658 -0.203094395167276 -2.004448011408180 -0.105232000350952 -0.989184021949768 0.102187000215054
-6.573259830474854 6.990312909383952 5.841633729884999 0.402211993932724 -0.361891001462936 -0.840987026691437
-1.019099473953247 1.079781563929979 7.229150148304448 -0.085130997002125 0.318190008401871 0.944196999073029
4.012293815612793 0.545685104819954 -0.481943200309613 0.167585998773575 -0.091082997620106 -0.981640994548798
-3.790726423263550 -2.800183427826420 0.735477509885901 0.074051000177860 -0.995441973209381 -0.060102000832558
-6.726294994354248 10.442079831766321 3.934586295774246 0.371740013360977 -0.876805007457733 -0.304996013641357
3.687316894531250 -1.070410704588461 4.191825637705620 0.727458000183105 -0.043352000415325 0.684781014919281
-2.805215597152710 4.888078789957581 1.422613640197204 -0.408708006143570 0.495739996433258 -0.766290009021759
-7.993850231170654 1.117676912893637 7.446845096783250 -0.357580989599228 -0.757399022579193 0.546335995197296
-6.775710105895996 1.071170897547300 0.816204390733879 -0.478368014097214 -0.796298980712891 -0.370231986045837
5.146409988403320 -0.701650114769935 3.167822184571303 0.235267996788025 0.540332973003387 0.807892024517059
-6.362609863281250 -2.728617972724784 2.111849339661744 -0.772728025913239 0.633581995964050 0.038284998387098
1.828846454620361 -3.939971589385010 1.917405558487235 0.500854015350342 -0.712414026260376 0.491540014743805
-3.388849973678589 8.783391155045045 8.679947341439483 0.314702004194260 0.371865004301071 0.873314976692200
-3.002823114395142 8.493646787603062 7.675384208784557 0.331647992134094 0.629912972450256 0.702296018600464
-0.152210503816605 -3.274967345763864 4.456710317017832 -0.084280997514725 -0.296135008335114 0.951420009136200
-7.430574893951416 9.237388006406686 4.774336606167374 -0.613264024257660 -0.755340993404388 -0.231012001633644
-8.876020431518555 4.079810304187608 9.130971842935120 -0.855440974235535 0.342545986175537 0.388437002897263
4.700781345367432 0.494640397537063 2.794198048722111 0.665571987628937 0.728383004665375 0.162701994180679
-3.847803592681885 -4.071606537667360 1.948196961311294 -0.150292992591858 -0.694893002510071 0.703231990337372
1.842964053153992 -1.784305759291449 5.716103372301641 0.434035986661911 0.031509000808001 0.900345027446747
-6.343050003051758 3.715607122806396 0.983609659861444 -0.360668987035751 -0.050351001322269 -0.931334018707275
0.848160505294800 3.392776389610842 -1.108605337381428 0.295051991939545 -0.197012007236481 -0.934948980808258
-4.310938358306885 -2.868888166119129 2.724186171882854 -0.087090998888016 0.167980998754501 0.981935977935791
-5.611995220184326 -0.850753917672050 2.026856018876294 -0.326119005680084 -0.916804015636444 0.230471000075340
-8.742569923400879 5.922347695063396 6.313837936356817 -0.805756986141205 0.355022996664047 -0.474040985107422
-9.321814537048340 2.035262640090080 8.027676210275818 -0.942773997783661 -0.089005999267101 0.321332991123199
2.452620506286621 4.286289118836645 0.839597033957912 0.495575010776520 0.180730000138283 -0.849554002285004
-1.472975015640259 5.611127646564238 5.020647951057431 -0.203448995947838 0.851206004619598 -0.483794987201691
1.439889550209045 -3.160023141628240 3.899241538568604 0.376859009265900 -0.251998990774155 0.891332983970642
-2.745689392089844 0.944211237839507 -3.181454137233797 0.137996003031731 -0.796418011188507 -0.588791012763977
2.957227468490601 2.349342905767248 6.782034771569775 0.635680973529816 0.511999011039734 0.577726006507874
-1.434751987457275 0.452182279258329 6.680781407299654 -0.149350002408028 0.528608977794647 0.835623979568481
-1.752357482910156 -1.065186347453437 -0.582710628257650 0.025129999965429 -0.999523997306824 -0.017885999754071
-5.155105113983154 -1.393208556658952 3.840094589752187 -0.238666996359825 -0.538757979869843 0.807946979999542
-6.612884998321533 1.633421112314237 6.919125016619780 0.200958997011185 -0.205245003104210 0.957857012748718
-5.763360023498535 -0.191090465176742 6.255963595107928 -0.078887999057770 0.099297001957893 0.991926014423370
2.240738391876221 5.518653286972881 4.000223330175836 0.447302013635635 0.646205008029938 -0.618336021900177
-1.429804444313049 2.999229576121921 7.442014140336071 -0.254819005727768 0.825558006763458 0.503508985042572
2.562871456146240 -2.331297019917773 0.127483191583852 0.050825998187065 -0.988539993762970 0.142148002982140
-7.637869834899902 7.923319321198796 6.241228028305477 -0.924260020256042 -0.330639004707336 -0.190845996141434
-8.244640350341797 2.186411347252269 6.379126110604684 -0.711605012416840 -0.692291975021362 0.119796000421047
-7.292085170745850 10.583738623321523 5.294848780478708 -0.846853971481323 -0.362300992012024 -0.389328986406326
-1.282646536827087 5.275509275152302 1.809643298245210 -0.044016998261213 0.567991971969604 -0.821856021881104
-4.389461517333984 1.078031273350644 6.870828091468065 0.144171997904778 0.468281000852585 0.871738016605377
1.225332975387573 5.309722315357988 2.498770802456112 0.166410997509956 0.360049992799759 -0.917972028255463
-7.196965217590332 7.283806022098431 7.647007737919398 -0.051291998475790 0.994234025478363 0.094169996678829
-2.742813110351563 2.851003607822841 -1.294851907273504 -0.737266004085541 -0.290847003459930 -0.609793007373810
-7.586259841918945 3.490198131371606 1.474789629945867 -0.565823972225189 -0.186759993433952 -0.803095996379852
-5.848659992218018 4.721565176498502 9.599247942188351 0.629022002220154 0.349142998456955 0.694571971893311
-9.490679740905762 3.454718333506805 6.610155715743811 -0.994536995887756 -0.102072998881340 0.021863000467420
-2.250241518020630 10.341236999608549 8.711354736102612 0.451608985662460 0.538473010063171 0.711404979228973
-6.890900135040283 -0.278273135112565 1.744510400939729 -0.436883985996246 -0.894787013530731 0.092128999531269
-6.069109916687012 12.779109567687247 4.044229039461931 0.689064979553223 -0.206416994333267 -0.694680988788605
-5.501430034637451 6.638631968499292 8.301633785360336 0.107533000409603 0.808492004871368 0.578599989414215
0.377014011144638 -3.159075235610470 4.873279022367343 0.163654997944832 -0.208447992801666 0.964244008064270
-8.672909736633301 3.168085950242203 5.193688625004562 -0.984027981758118 -0.174382001161575 0.035787999629974
1.878288507461548 3.962634549271363 0.005138403709844 0.437572985887527 0.071459002792835 -0.896338999271393
3.546606540679932 1.504814130858279 -0.238765960858604 0.794686019420624 -0.317362993955612 -0.517449021339417
-1.827759027481079 8.167781398904973 7.372108375405971 0.697299003601074 -0.278497993946075 0.660463988780975
-8.261469841003418 4.605691080305726 9.563404026351236 -0.386186003684998 0.793898999691010 0.469664007425308
-5.230525016784668 1.974586204345210 0.351066897020207 -0.342949986457825 -0.478184998035431 -0.808533012866974
1.311030983924866 5.659416769177528 3.079812534431339 0.298081010580063 0.374651014804840 -0.877942979335785
-1.532737016677856 3.944409113395523 -1.486164306875985 0.083131998777390 -0.219193994998932 -0.972132980823517
-0.232652500271797 2.354241569104247 7.689387139588799 -0.036091998219490 0.643462002277374 0.764626979827881
-3.775269508361816 1.386590474643708 -1.950019770488622 -0.528903007507324 0.712647974491119 -0.460862994194031
-5.023614883422852 5.830315097161629 5.270738965063815 0.410329997539520 0.634266972541809 -0.655236005783081
-6.129234790802002 -2.306486904452224 0.566893551377246 -0.767594993114471 0.635208010673523 0.085488997399807
-2.455079078674316 -1.614886327572038 6.234799384698246 -0.699949979782104 -0.005830000154674 0.714168012142181
-8.401000022888184 1.595203458015560 2.185186369817898 -0.822036981582642 -0.538793027400970 -0.184274002909660
-5.975735187530518 2.918920890067447 0.405447422567214 -0.216729998588562 -0.490613996982574 -0.843994021415710
-6.356305122375488 3.431593830377066 8.745701252558536 0.664440989494324 0.259674996137619 0.700775980949402
-7.054944992065430 8.375587477213283 7.309768089025121 0.043992001563311 0.885226011276245 0.463077008724213
-3.753945589065552 5.730473104075025 3.473409439122935 0.045338999480009 0.530992984771729 -0.846162021160126
1.405821442604065 -1.915977972722904 -0.169764702664924 0.057294998317957 -0.997299015522003 -0.045949999243021
2.791620492935181 1.258178805851820 -1.356533969031751 0.717585980892181 -0.459479987621307 -0.523401021957397
-7.709819793701172 7.301194439208635 7.374594330341937 -0.616973996162415 0.762060999870300 -0.196484997868538
-6.138380050659180 9.238258683446510 6.101283434426048 0.966984987258911 0.215635001659393 0.135802999138832
-7.794939994812012 3.210738247730982 9.862083872894749 -0.245966002345085 0.586691021919250 0.771553993225098
-5.091810226440430 6.610108801392540 6.650929683354607 0.347701013088226 -0.536862015724182 -0.768688976764679
2.961200952529907 0.277647132605740 -0.714361514056682 0.554271996021271 -0.532196998596191 -0.639959990978241
2.253051042556763 -0.425013635585908 -1.118769528901230 0.489315003156662 -0.659044027328491 -0.571168005466461
-3.142221450805664 -3.165339388463238 1.496180587566908 0.499247014522552 -0.866077005863190 0.025739999487996
-5.504344940185547 -0.315261660038509 -2.003104407296942 -0.139154002070427 -0.870768010616302 -0.471592009067535
4.490100383758545 2.254970676728530 2.105388118886683 0.904129028320313 -0.051337998360395 -0.424165010452271
2.311881065368652 -1.612736563644301 -0.615639449344845 -0.092734999954700 -0.995278000831604 0.028663000091910
-4.314019680023193 4.685836084958743 6.539395694097723 0.507377982139587 0.852775990962982 0.123860001564026
1.313706040382385 4.500085973210037 6.868963393523360 0.301979988813400 0.948684990406036 0.093832001090050
-5.604334831237793 7.696103717105910 7.901971145303159 -0.724263012409210 0.616276025772095 -0.309267997741699
-6.697909832000732 6.447214343490443 5.203412277733915 0.079395003616810 0.088501997292042 -0.992906987667084
-0.655258476734161 5.813519489544910 2.656918504462012 0.003519000019878 0.356878012418747 -0.934144973754883
-6.700550079345703 -0.646766925565173 0.020851745163712 -0.617537975311279 0.783608973026276 -0.067847996950150
-5.347485065460205 -2.206378567959148 2.149610400592969 -0.642518997192383 0.757242977619171 -0.117265999317169
-8.098580360412598 1.528768793164524 8.575986560212661 -0.418247014284134 -0.244386002421379 0.874840021133423
4.900177955627441 -2.006590531797813 1.399899399343049 0.548285007476807 -0.711606025695801 0.439319014549255
-2.711449384689331 4.044268190873044 6.522023776472395 -0.056333001703024 0.951326012611389 0.302992999553680
0.613550484180450 -3.749070686800648 3.375948451990996 0.279444009065628 -0.566411972045898 0.775299012660980
-4.630208492279053 -1.567593576504257 -0.755214134369487 0.031152000650764 -0.958945989608765 0.281872987747192
3.824292421340942 2.669483093384817 1.104157081889112 0.791655004024506 -0.081183001399040 -0.605552017688751
-3.069376945495605 -2.109651727377321 -0.188102393510484 0.308566987514496 -0.950906991958618 -0.023723000660539
-5.049135208129883 -0.687474130314579 1.459632230378216 -0.779591023921967 -0.560075998306274 0.280272006988525
-4.529556274414063 -4.223625885446564 2.112278999518695 0.129327997565269 -0.834747016429901 0.535230994224548
-2.739959001541138 5.161996078521319 0.028807747773136 -0.587333977222443 0.345721006393433 -0.731790006160736
2.106323957443237 2.790842223468954 -0.994666736924407 0.444317013025284 -0.116472996771336 -0.888266026973724
-0.967706024646759 -4.540678239388250 2.473254879360549 0.166629001498222 -0.807199001312256 0.566272020339966
-4.194358348846436 -0.462022257527014 5.548300989450186 0.041094001382589 -0.031697999686003 0.998651981353760
-3.395045518875122 -3.617201080070376 1.460203544962400 0.284460991621017 -0.952455997467041 -0.109134003520012
-7.926929950714111 10.610283721085501 5.753243854195550 -0.847406983375549 -0.459975987672806 -0.265183985233307
-6.375219821929932 -2.503450593156401 1.600474727742972 -0.736792027950287 0.551533997058868 -0.391086012125015
-4.891719341278076 -0.173691896549747 -2.103950597595680 -0.607363998889923 -0.490700989961624 -0.624756991863251
-3.870581388473511 -3.377172959614754 2.489678861430035 -0.264311999082565 0.463957011699677 0.845507025718689
4.294528007507324 1.134643620940185 0.990346123684158 0.595541000366211 0.200572997331619 -0.777882993221283
1.254933476448059 5.928046864976898 4.139870162471174 0.237519994378090 0.688445985317230 -0.685293018817902
-5.960414886474609 5.886345551094871 9.073588180477227 0.274067997932434 0.949976980686188 0.149765998125076
-3.453664064407349 -1.996199383835658 -0.292814428688870 -0.107712998986244 -0.985750973224640 0.129200994968414
-6.986724853515625 0.922418683331847 7.982687631847527 0.322093009948730 -0.765748977661133 0.556672990322113
-2.743435382843018 1.704421647862233 -1.853918698134597 -0.624257981777191 0.223003998398781 -0.748713016510010
-4.429183483123779 0.963653625794533 -0.590799012705386 -0.274066001176834 0.046897001564503 -0.960566997528076
2.146367073059082 2.081048287978681 -1.649954491760572 0.475780010223389 -0.338604003190994 -0.811775982379913
-3.649640083312988 9.283973777648052 8.528789589613881 -0.456694990396500 0.853173017501831 0.252041995525360
-2.634390115737915 -3.401611551903885 1.844438214175802 0.249270007014275 -0.883679986000061 -0.396200001239777
3.258699417114258 3.385620669671019 0.696604946956547 0.684360980987549 -0.088807001709938 -0.723715007305145
-3.647927999496460 0.229409790298963 -2.492726296383244 0.216668993234634 -0.937472999095917 0.272395998239517
1.559639453887939 1.775925854564320 -1.856698354300795 0.275160014629364 -0.505712985992432 -0.817642986774445
-5.459265232086182 -0.920701899043688 5.478848884187677 -0.096258997917175 -0.280880004167557 0.954903006553650
-1.697932004928589 -0.853138192622237 6.975832237630606 -0.264465987682343 0.524170994758606 0.809508025646210
-7.132369995117188 8.078309454387052 5.376368153726287 -0.258891999721527 -0.915853023529053 -0.306899994611740
-3.035954475402832 -4.481562659793683 3.030326827734900 -0.556246995925903 0.199530005455017 0.806707024574280
-3.107228040695190 4.169044116265141 -0.506564756270294 -0.845869004726410 -0.137633994221687 -0.515326976776123
-1.296615481376648 5.827645965752396 3.602942055930521 -0.145023003220558 0.645838975906372 -0.749572992324829
-5.511960029602051 5.206211684374825 9.288239819283614 0.782840013504028 0.503978013992310 0.364921987056732
3.320350885391235 -2.334785299065773 2.092700568597896 0.353965014219284 -0.353253990411758 0.865980029106140
4.010304927825928 -1.408167769796729 2.847900850084449 0.407142996788025 0.169323995709419 0.897531986236572
-6.484419822692871 7.992510010099649 5.518933925920000 0.517834007740021 -0.808681011199951 -0.279074013233185
3.800668001174927 0.573831955299811 5.553634299651919 0.756554007530212 0.265240997076035 0.597724020481110
-3.761204957962036 1.625704220875607 6.812121066160733 0.064530998468399 0.489762991666794 0.869463980197906
-4.910910129547119 3.367197611749357 7.762541599072994 0.819088995456696 0.258439987897873 0.512153983116150
-1.523742556571960 1.515768411194130 -2.360558708328124 0.063734002411366 -0.251163989305496 -0.965843975543976
-2.882187604904175 4.940048146916153 5.773629311745247 0.002716999966651 0.988713026046753 -0.149799004197121
-4.257624149322510 5.409194056525771 2.524648644369716 -0.075793996453285 0.263953000307083 -0.961552977561951
-9.148414611816406 5.333775921697447 7.696826304362165 -0.981114983558655 -0.110595002770424 -0.158691003918648
-4.276035308837891 4.192754171171511 1.095402775936446 -0.093592002987862 -0.160832002758980 -0.982533991336823
-8.357705116271973 4.149588830815437 4.418642441959083 -0.839555978775024 -0.239589005708694 -0.487589001655579
-8.690420150756836 5.202173247208306 4.916539774238333 -0.685123980045319 -0.208029001951218 -0.698090016841888
5.392779827117920 -0.323401861293457 0.114461617027865 0.722064018249512 -0.622403025627136 -0.302055001258850
2.515085935592651 1.108731793843858 6.734557102785732 0.489733994007111 0.490229994058609 0.720996022224426
-2.940526485443115 2.991402193184981 6.912391938537064 -0.114986002445221 0.827102005481720 0.550164997577667
4.171580791473389 -2.456871712012812 2.072828769113622 0.275667995214462 -0.476112008094788 0.835060000419617
-8.259275436401367 2.167643594809753 6.065299799186166 -0.919049978256226 -0.053463000804186 0.390498995780945
-8.711680412292480 0.975463281593525 4.077279318532020 -0.935379981994629 -0.326407998800278 0.136095002293587
-7.429944992065430 -0.632498288785864 3.503066352533156 -0.624559998512268 -0.694253027439117 0.357683002948761
-6.166910171508789 -2.397996945011213 0.132118885244018 -0.358029007911682 -0.925273001194000 0.125237002968788
-0.937934517860413 9.738359779922689 7.022076583281998 0.809827029705048 0.253533989191055 0.529056012630463
-4.886853694915771 2.617083715549548 7.009156031971725 0.437247991561890 0.389432996511459 0.810652017593384
2.074083566665649 -2.323994720853138 4.384761661196966 0.496419012546539 -0.095792002975941 0.862782001495361
-3.768534898757935 3.117042809549424 7.086168514734077 0.069525003433228 0.776337981224060 0.626470029354095
-4.516777515411377 7.554452155444316 8.428273175848258 0.271568000316620 0.381729006767273 0.883477985858917
-5.578639984130859 -4.272044224795975 2.088042028182431 -0.113142997026443 -0.943266987800598 0.312164008617401
-4.512711524963379 3.358065820124055 0.649964519437430 -0.030572999268770 -0.365851998329163 -0.930171012878418
-2.556135416030884 0.437678328456111 6.702624912133135 -0.126479998230934 0.340561002492905 0.931675970554352
-6.155539989471436 10.493366167111649 5.388558929004069 0.997745990753174 0.066620998084545 -0.007974999956787
0.986413478851318 2.789602984036204 7.608563264959995 0.192592993378639 0.665724992752075 0.720915019512177
-8.283060073852539 0.067674318167538 4.240748586506517 -0.801356971263885 -0.396813988685608 0.447622001171112
-3.319191455841064 1.552272609511328 -0.164076010457110 -0.633152008056641 -0.312757998704910 -0.708025991916656
-1.119043469429016 -3.488927539766073 1.995536950240059 -0.125173002481461 -0.886348009109497 -0.445778995752335
-0.933995485305786 1.793004154501692 -2.378314013157768 0.018743999302387 -0.610491991043091 -0.791800975799561
-1.697456002235413 11.306223952469404 8.229028058334325 -0.151482000946999 0.964146971702576 -0.217883005738258
-6.680029869079590 1.136022278920905 8.535848552119448 0.529255986213684 -0.214403003454208 0.820926010608673
3.216280460357666 2.601521482438898 -0.004814124110357 0.708270013332367 -0.100429996848106 -0.698760986328125
-1.648757457733154 0.266660999840496 -2.522487719281413 -0.033975999802351 -0.931116998195648 0.363135010004044
-6.274099826812744 12.156573818956616 5.048958862743958 0.907849013805389 0.375137001276016 0.187303006649017
-9.081720352172852 4.937616709949325 7.188405108614280 -0.958216011524200 0.247491002082825 -0.143424004316330
2.819156885147095 4.641081670657271 2.009014765361881 0.534331977367401 0.282142996788025 -0.796796023845673
0.132199004292488 3.614127397724074 7.579768872269188 0.038777999579906 0.877426028251648 0.478141993284225
2.408168077468872 -2.819687469745928 2.752246825290923 0.534228980541229 -0.360742002725601 0.764503002166748
-2.014409065246582 10.515814674759653 7.270146522179359 -0.577229976654053 -0.074845999479294 -0.813144028186798
-6.648445129394531 -0.263497588986399 -1.031687310475274 -0.550339996814728 0.488554000854492 -0.677083015441895
4.079987049102783 1.671150433059332 5.468011620491929 0.847772002220154 0.367944002151489 0.381969004869461
-6.392049789428711 8.854683623839488 5.071444548485574 0.762799978256226 -0.617968022823334 -0.190401002764702
-7.794974803924561 7.122735030254414 6.650687342698929 -0.862646996974945 0.106802999973297 -0.494401991367340
-8.118914604187012 6.275417590291152 5.790271150419485 -0.631075978279114 0.232289001345634 -0.740125000476837
-4.657162666320801 1.758332528817917 -0.080522455113344 -0.183913007378578 -0.330644994974136 -0.925661981105804
6.045635223388672 0.354739147858397 1.217440566995705 0.932765007019043 -0.080003000795841 -0.351496011018753
-5.048415184020996 6.279470874816390 7.969795561650772 0.736571013927460 0.223300993442535 0.638436019420624
-4.785758495330811 4.361006866813748 7.457669137979720 0.882143974304199 0.409749001264572 0.232224002480507
-4.407425403594971 0.946305510210382 -2.169262921687148 -0.771591007709503 0.438106000423431 -0.461205005645752
-4.209255695343018 -1.735666679113332 4.147227233905103 -0.316309988498688 -0.212258994579315 0.924605011940002
-7.813974857330322 8.989456104128303 6.214193120230016 -0.971669018268585 -0.222270995378494 -0.080339998006821
-6.195885181427002 7.211271821788608 6.431216705743436 0.936442971229553 -0.138901993632317 -0.322151005268097
-7.985855102539063 6.459565268377570 8.484107984233111 -0.300184994935989 0.947700977325439 -0.108404003083706
-5.251285076141357 0.122474105282210 -1.353764177815526 -0.328278988599777 0.303766995668411 -0.894403994083405
-3.079235553741455 2.414827878621149 -0.551245407657573 -0.907256007194519 -0.250342011451721 -0.337956011295319
-5.654735088348389 2.519695505587892 8.198583582222781 0.595405995845795 0.141406998038292 0.790883004665375
0.107816502451897 1.292675932309610 -2.234000434911068 0.157261997461319 -0.474126011133194 -0.866298973560333
0.400999009609222 4.946979972206539 6.682080873307548 -0.023465000092983 0.999243974685669 -0.030987000092864
-8.418305397033691 3.305475959616452 2.550485434966249 -0.850049018859863 -0.008882000111043 -0.526628971099854
-3.141679525375366 -0.545422266158635 5.361113363636192 -0.307687997817993 -0.130391001701355 0.942511022090912
1.478240966796875 4.797908282591230 0.608659037630174 0.445876002311707 0.231521993875504 -0.864633977413177
-3.877364397048950 -1.039248182797905 5.026164033712275 0.046723999083042 -0.076701998710632 0.995958983898163
1.735632538795471 0.468840514478922 6.985438752243964 0.268298000097275 0.480987012386322 0.834666013717651
-6.360270023345947 10.638951034973434 4.538669007686361 0.952418982982635 -0.290372014045715 -0.092637002468109
-4.958368301391602 -2.413325843295619 2.558854130947662 -0.612792015075684 0.415553987026215 0.672161996364594
1.655450463294983 4.896878395601323 1.504592817047684 0.335150986909866 0.433991998434067 -0.836256027221680
4.196321487426758 3.455972254765681 4.263786671328395 0.883647978305817 0.437691003084183 -0.166107997298241
2.089011907577515 -0.898561066812329 6.077196943568539 0.432500004768372 0.234621003270149 0.870572984218597
0.191276997327805 -2.460897611323015 0.288998527891281 -0.399293988943100 -0.899425983428955 0.177754998207092
-2.094951391220093 5.709196983995391 2.722448738690062 -0.064364001154900 0.497202008962631 -0.865243971347809
-6.297104835510254 4.812042382445086 9.749900501074915 0.153852999210358 0.829602003097534 0.536740005016327
-6.665969848632813 13.143770052775183 4.658896313309130 -0.619530975818634 -0.124443002045155 -0.775044977664948
-6.638995170593262 -3.760610982400146 1.748684129704470 -0.839066028594971 -0.217768996953964 0.498542010784149
-5.488234996795654 3.742821278145013 0.697586444450643 -0.074703998863697 -0.237198993563652 -0.968584001064301
-0.923240005970001 11.130359681254275 6.836284620534531 0.535839974880219 -0.127327993512154 -0.834663987159729
-2.328258991241455 5.712688406783960 3.652435479061480 -0.060805000364780 0.690945029258728 -0.720345973968506
-4.758696556091309 -1.306269844954530 4.732403380926064 -0.022095000371337 -0.252270013093948 0.967405021190643
-4.290041923522949 -3.513361152351678 2.540134963882446 0.144149005413055 0.385751992464066 0.911271989345551
-8.962080001831055 2.150800091824514 4.837385897300156 -0.979170024394989 0.162484005093575 0.121761001646519
-0.683170497417450 5.953705252505868 4.910115540810359 -0.163175001740456 0.866378009319305 -0.471978008747101
-0.049279998987913 -3.698993560074902 3.989294139400718 -0.019457999616861 -0.405615985393524 0.913836002349854
-6.402219772338867 13.476954473094601 4.973880554646215 0.508700013160706 0.813315987586975 -0.282386004924774
-0.876474976539612 5.487875265671782 1.264015139313815 -0.014245999976993 0.844632983207703 -0.535156011581421
0.062654003500938 0.519323733829440 6.768432814173528 0.024796999990940 0.588451981544495 0.808152019977570
-9.157290458679199 4.108530681238512 5.208348478230838 -0.901142001152039 -0.239923000335693 -0.361081004142761
-6.156964778900146 7.189407430947882 7.473554822604435 0.190440997481346 0.843810021877289 -0.501713991165161
-2.701773881912231 -0.093977692956005 6.241300379106346 -0.336997985839844 0.245012998580933 0.909066021442413
2.578916549682617 4.601456299406405 5.818481197484571 0.566666007041931 0.822862982749939 -0.042259998619556
-5.666399955749512 1.111528239461959 0.479945506711274 -0.530790984630585 -0.655312001705170 -0.537425994873047
-3.701493024826050 -1.921758788334076 3.981702815327474 0.171737998723984 -0.147862002253532 0.973982989788055
4.406373023986816 -0.502190800063575 3.060523418085634 0.483134001493454 0.480017989873886 0.732231974601746
-1.396572470664978 -3.536385346937805 3.270619495444999 -0.113475002348423 -0.106077000498772 0.987861990928650
-2.299669981002808 5.119019969375262 1.577988589967430 -0.221117004752159 0.614449024200439 -0.757336974143982
-9.216369628906250 2.632866615846160 6.870732829219288 -0.884748995304108 -0.463288009166718 0.050833001732826
0.771368503570557 2.290041145494604 -1.980690353772124 0.226665005087852 -0.335455000400543 -0.914381027221680
-2.403875589370728 -4.911813981377284 2.859427226024326 0.065705999732018 -0.539017021656036 0.839727997779846
-6.147870063781738 0.743750101742843 6.696798419577603 -0.131393998861313 0.291069000959396 0.947636008262634
3.475830554962158 -1.924243658961568 3.601862009285110 0.685056984424591 -0.247315004467964 0.685223996639252
-5.271140098571777 5.508798632017696 2.878631357109143 -0.212911993265152 0.374841988086700 -0.902309000492096
-6.244679927825928 8.062399719509983 6.417784972488598 0.980293989181519 0.197540000081062 -0.001629999955185
0.466093003749847 4.824020323077415 0.033515941549040 0.375279009342194 0.047060001641512 -0.925716996192932
-2.043706893920898 -2.229462688264454 5.290100417415011 -0.489827007055283 -0.284595996141434 0.824060022830963
-8.588914871215820 5.667289512788682 5.278851301786244 -0.692812979221344 0.089449003338814 -0.715547978878021
-6.454559803009033 -0.598073682234829 -1.745508656967268 -0.439040988683701 -0.632991015911102 -0.637624979019165
-0.479036003351212 -2.532162490445126 5.816935973625028 0.000495999993291 -0.174036994576454 0.984739005565643
4.495487213134766 2.549674480965064 3.972658305981556 0.979577004909515 0.195093005895615 0.048657998442650
3.171912431716919 4.810474068417141 4.608499961662046 0.667932987213135 0.688422024250031 -0.282739013433456
0.075033999979496 3.291130552284527 -1.551295368867839 0.261761993169785 -0.164997994899750 -0.950923979282379
5.224715232849121 1.037534126698769 0.427855933224826 0.434808999300003 0.154982000589371 -0.887085974216461
-8.540225028991699 1.285849928711840 8.175968688975743 -0.446676999330521 -0.300844997167587 0.842598021030426
0.591273486614227 5.935748430110937 4.697591499353970 0.089703001081944 0.815732002258301 -0.571430981159210
5.795334815979004 -1.267578230693877 1.470189709152815 0.855868995189667 -0.483426988124847 0.183812007308006
